# .PCD v0.7 - Point Cloud Data file format
VERSION 0.7
FIELDS x y z
SIZE 4 4 4
TYPE F F F
COUNT 1 1 1
WIDTH 1147
HEIGHT 1
VIEWPOINT 0 0 0 1 0 0 0
POINTS 1147
DATA ascii
8.9038504e-42 8.9052517e-42 8.906653e-42
8.9094556e-42 8.9122582e-42 8.9150608e-42
8.9178634e-42 8.9192647e-42 8.920666e-42
8.9234686e-42 8.9248699e-42 8.9262712e-42
8.9290738e-42 8.9304751e-42 8.9318764e-42
8.9430868e-42 8.9444881e-42 8.9458894e-42
8.9542972e-42 8.9570998e-42 8.9599024e-42
8.9683102e-42 8.9697115e-42 8.9711128e-42
8.9823232e-42 8.9837245e-42 8.9851258e-42
8.9879284e-42 8.9893296e-42 8.9907309e-42
8.9935335e-42 8.9949348e-42 8.9963361e-42
9.00054e-42 9.0033426e-42 9.0047439e-42
9.0075465e-42 9.0089478e-42 9.0103491e-42
9.0131517e-42 9.014553e-42 9.0159543e-42
9.0187569e-42 9.0215595e-42 9.0243621e-42
9.0271647e-42 9.028566e-42 9.0299673e-42
9.0327699e-42 9.0341712e-42 9.0355725e-42
9.0467829e-42 9.0481842e-42 9.0495855e-42
9.0579933e-42 9.0593946e-42 9.0607959e-42
9.0720063e-42 9.0734076e-42 9.0748089e-42
9.0832166e-42 9.0846179e-42 9.0860192e-42
9.0916244e-42 9.0930257e-42 9.094427e-42
9.0972296e-42 9.0986309e-42 9.1000322e-42
9.1028348e-42 9.1042361e-42 9.1056374e-42
9.10844e-42 9.1112426e-42 9.1140452e-42
9.1168478e-42 9.1182491e-42 9.1196504e-42
9.122453e-42 9.1238543e-42 9.1252556e-42
9.1280582e-42 9.1294595e-42 9.1308608e-42
9.136466e-42 9.1378673e-42 9.1392686e-42
9.1476764e-42 9.1490777e-42 9.150479e-42
9.1616894e-42 9.1630907e-42 9.164492e-42
9.1728997e-42 9.174301e-42 9.1757023e-42
9.1869127e-42 9.188314e-42 9.1897153e-42
9.1925179e-42 9.1939192e-42 9.1953205e-42
9.1981231e-42 9.2009257e-42 9.2037283e-42
9.2065309e-42 9.2079322e-42 9.2093335e-42
9.2121361e-42 9.2135374e-42 9.2149387e-42
9.2177413e-42 9.2191426e-42 9.2205439e-42
9.2261491e-42 9.2275504e-42 9.2289517e-42
9.2317543e-42 9.2331556e-42 9.2345569e-42
9.2373595e-42 9.2387608e-42 9.2401621e-42
9.2513725e-42 9.2527738e-42 9.2541751e-42
9.2625828e-42 9.2639841e-42 9.2653854e-42
9.2765958e-42 9.2779971e-42 9.2793984e-42
9.2878062e-42 9.2906088e-42 9.2934114e-42
9.296214e-42 9.2976153e-42 9.2990166e-42
9.3018192e-42 9.3032205e-42 9.3046218e-42
9.3074244e-42 9.3088257e-42 9.310227e-42
9.3158322e-42 9.3172335e-42 9.3186348e-42
9.3214374e-42 9.3228387e-42 9.32424e-42
9.3270426e-42 9.3284439e-42 9.3298452e-42
9.3326478e-42 9.3354504e-42 9.338253e-42
9.3410556e-42 9.3424569e-42 9.3438582e-42
9.352266e-42 9.3536672e-42 9.3550685e-42
9.3662789e-42 9.3676802e-42 9.3690815e-42
9.3774893e-42 9.3802919e-42 9.3830945e-42
9.3915023e-42 9.3929036e-42 9.3943049e-42
9.3971075e-42 9.3985088e-42 9.3999101e-42
9.4055153e-42 9.4069166e-42 9.4083179e-42
9.4111205e-42 9.4125218e-42 9.4139231e-42
9.4167257e-42 9.418127e-42 9.4195283e-42
9.4223309e-42 9.4251335e-42 9.4279361e-42
9.4307387e-42 9.43214e-42 9.4335413e-42
9.4363439e-42 9.4377452e-42 9.4391465e-42
9.4419491e-42 9.4433504e-42 9.4447516e-42
9.455962e-42 9.4573633e-42 9.4587646e-42
9.4671724e-42 9.469975e-42 9.4727776e-42
9.4811854e-42 9.4825867e-42 9.483988e-42
9.4951984e-42 9.4965997e-42 9.498001e-42
9.5008036e-42 9.5022049e-42 9.5036062e-42
9.5064088e-42 9.5078101e-42 9.5092114e-42
9.512014e-42 9.5148166e-42 9.5176192e-42
9.5204218e-42 9.5218231e-42 9.5232244e-42
9.526027e-42 9.5274283e-42 9.5288296e-42
9.5316322e-42 9.5330335e-42 9.5344348e-42
9.5400399e-42 9.5414412e-42 9.5428425e-42
9.5456451e-42 9.5470464e-42 9.5484477e-42
9.5568555e-42 9.5596581e-42 9.5624607e-42
9.5708685e-42 9.5722698e-42 9.5736711e-42
9.5848815e-42 9.5862828e-42 9.5876841e-42
9.5960919e-42 9.5974932e-42 9.5988945e-42
9.6016971e-42 9.6044997e-42 9.6073023e-42
9.6115062e-42 9.6129075e-42 9.6143088e-42
9.6171114e-42 9.6185127e-42 9.619914e-42
9.6227166e-42 9.6241179e-42 9.6269204e-42
9.6311243e-42 9.6325256e-42 9.6339269e-42
9.6367295e-42 9.6381308e-42 9.6395321e-42
9.6423347e-42 9.643736e-42 9.6451373e-42
9.6507425e-42 9.6535451e-42 9.6549464e-42
9.6633542e-42 9.6647555e-42 9.6661568e-42
9.6787685e-42 9.6801698e-42 9.6815711e-42
9.6899789e-42 9.6927815e-42 9.6941828e-42
9.7039919e-42 9.7053932e-42 9.7067945e-42
9.7095971e-42 9.7109984e-42 9.713801e-42
9.7194061e-42 9.7208074e-42 9.7222087e-42
9.7250113e-42 9.7264126e-42 9.7278139e-42
9.7306165e-42 9.7320178e-42 9.7334191e-42
9.7390243e-42 9.7418269e-42 9.7432282e-42
9.7460308e-42 9.7474321e-42 9.7488334e-42
9.751636e-42 9.7530373e-42 9.7544386e-42
9.7586425e-42 9.7614451e-42 9.7642477e-42
9.7726555e-42 9.7740568e-42 9.7754581e-42
9.7880698e-42 9.7894711e-42 9.7908724e-42
9.7992802e-42 9.8006815e-42 9.8034841e-42
9.8146944e-42 9.8160957e-42 9.817497e-42
9.8202996e-42 9.8217009e-42 9.8231022e-42
9.8273061e-42 9.8301087e-42 9.83151e-42
9.8343126e-42 9.8357139e-42 9.8371152e-42
9.8399178e-42 9.8413191e-42 9.8427204e-42
9.8469243e-42 9.8497269e-42 9.8525295e-42
9.8553321e-42 9.8567334e-42 9.8581347e-42
9.8609373e-42 9.8623386e-42 9.8637399e-42
9.8665425e-42 9.8693451e-42 9.8721477e-42
9.8819568e-42 9.8833581e-42 9.8847594e-42
9.8973711e-42 9.8987724e-42 9.9001737e-42
9.9085814e-42 9.9099827e-42 9.911384e-42
9.9239957e-42 9.925397e-42 9.9267983e-42
9.9296009e-42 9.9310022e-42 9.9324035e-42
9.9366074e-42 9.93941e-42 9.9422126e-42
9.9450152e-42 9.9464165e-42 9.9478178e-42
9.9506204e-42 9.9520217e-42 9.953423e-42
9.9562256e-42 9.9590282e-42 9.9618308e-42
9.9660347e-42 9.967436e-42 9.9688373e-42
9.9716399e-42 9.9730412e-42 9.9744425e-42
9.9772451e-42 9.9786464e-42 9.981449e-42
9.9926593e-42 9.9940606e-42 9.9954619e-42
1.0006672e-41 1.0009475e-41 1.0010876e-41
1.0019284e-41 1.0020685e-41 1.0022087e-41
1.0034698e-41 1.00361e-41 1.0037501e-41
1.0040303e-41 1.0041705e-41 1.0043106e-41
1.0045909e-41 1.0048711e-41 1.0051514e-41
1.0055718e-41 1.0057119e-41 1.005852e-41
1.0061323e-41 1.0062724e-41 1.0064126e-41
1.0066928e-41 1.0068329e-41 1.0071132e-41
1.0076737e-41 1.0078139e-41 1.007954e-41
1.0082342e-41 1.0083744e-41 1.0085145e-41
1.0087948e-41 1.0089349e-41 1.009075e-41
1.0103362e-41 1.0104763e-41 1.0106165e-41
1.0115974e-41 1.0118776e-41 1.0121579e-41
1.0129987e-41 1.0131388e-41 1.0132789e-41
1.0145401e-41 1.0146802e-41 1.0148203e-41
1.0151006e-41 1.0152407e-41 1.0153809e-41
1.0156611e-41 1.0158013e-41 1.0160815e-41
1.016642e-41 1.0167822e-41 1.0169223e-41
1.0172026e-41 1.0173427e-41 1.0174828e-41
1.0177631e-41 1.0179032e-41 1.0180433e-41
1.0186039e-41 1.0188841e-41 1.0190242e-41
1.0193045e-41 1.0194446e-41 1.0195848e-41
1.019865e-41 1.0200052e-41 1.0201453e-41
1.0214065e-41 1.0215466e-41 1.0216867e-41
1.0225275e-41 1.0228077e-41 1.023088e-41
1.0240689e-41 1.024209e-41 1.0243492e-41
1.0256103e-41 1.0257505e-41 1.0258906e-41
1.0261709e-41 1.026311e-41 1.0264511e-41
1.0267314e-41 1.0268715e-41 1.0270116e-41
1.0275722e-41 1.0278524e-41 1.0279926e-41
1.0282728e-41 1.0284129e-41 1.0285531e-41
1.0288333e-41 1.0289735e-41 1.0291136e-41
1.029534e-41 1.0298142e-41 1.0300945e-41
1.0303748e-41 1.0305149e-41 1.030655e-41
1.0309353e-41 1.0310754e-41 1.0312155e-41
1.0324767e-41 1.0326168e-41 1.032757e-41
1.0335977e-41 1.0337379e-41 1.0340181e-41
1.0351392e-41 1.0352793e-41 1.0354194e-41
1.0365405e-41 1.0368207e-41 1.0369609e-41
1.0372411e-41 1.0373813e-41 1.0375214e-41
1.0378016e-41 1.0379418e-41 1.0380819e-41
1.0385023e-41 1.0387826e-41 1.0390628e-41
1.0393431e-41 1.0394832e-41 1.0396233e-41
1.0399036e-41 1.0400437e-41 1.0401839e-41
1.0404641e-41 1.0407444e-41 1.0410246e-41
1.041445e-41 1.0415851e-41 1.0417253e-41
1.0420055e-41 1.0421457e-41 1.0422858e-41
1.043547e-41 1.0436871e-41 1.0438272e-41
1.044668e-41 1.0448081e-41 1.0449483e-41
1.0462094e-41 1.0463496e-41 1.0464897e-41
1.0474706e-41 1.0477509e-41 1.0480311e-41
1.0483114e-41 1.0484515e-41 1.0485916e-41
1.0488719e-41 1.049012e-41 1.0491522e-41
1.0494324e-41 1.0497127e-41 1.0499929e-41
1.0504133e-41 1.0505535e-41 1.0506936e-41
1.0509738e-41 1.051114e-41 1.0512541e-41
1.0515344e-41 1.0516745e-41 1.0519548e-41
1.0525153e-41 1.0526554e-41 1.0527955e-41
1.0530758e-41 1.0532159e-41 1.0533561e-41
1.0544771e-41 1.0547574e-41 1.0548975e-41
1.0557383e-41 1.0558784e-41 1.0560185e-41
1.0572797e-41 1.0574198e-41 1.05756e-41
1.0584007e-41 1.058681e-41 1.0589612e-41
1.0593816e-41 1.0595218e-41 1.0596619e-41
1.0599422e-41 1.0600823e-41 1.0602224e-41
1.0605027e-41 1.0606428e-41 1.0609231e-41
1.0614836e-41 1.0616237e-41 1.0617638e-41
1.0620441e-41 1.0621842e-41 1.0623244e-41
1.0626046e-41 1.0627448e-41 1.0628849e-41
1.0634454e-41 1.0637257e-41 1.0638658e-41
1.0641461e-41 1.0642862e-41 1.0644263e-41
1.0654072e-41 1.0656875e-41 1.0659677e-41
1.0668085e-41 1.0669487e-41 1.0670888e-41
1.0683499e-41 1.0684901e-41 1.0686302e-41
1.069471e-41 1.0696111e-41 1.0698914e-41
1.0704519e-41 1.070592e-41 1.0707322e-41
1.0710124e-41 1.0711525e-41 1.0712927e-41
1.0715729e-41 1.0717131e-41 1.0718532e-41
1.0724137e-41 1.072694e-41 1.0728341e-41
1.0731144e-41 1.0732545e-41 1.0733946e-41
1.0736749e-41 1.073815e-41 1.0739551e-41
1.0743755e-41 1.0746558e-41 1.0749361e-41
1.0752163e-41 1.0753564e-41 1.0754966e-41
1.0763374e-41 1.0768979e-41 1.0771781e-41
1.0780189e-41 1.078159e-41 1.0782992e-41
1.0797005e-41 1.0798406e-41 1.0799807e-41
1.0808215e-41 1.081382e-41 1.0816623e-41
1.0819425e-41 1.0820827e-41 1.0822228e-41
1.0825031e-41 1.0826432e-41 1.0827833e-41
1.0830636e-41 1.083484e-41 1.0837642e-41
1.0840445e-41 1.0841846e-41 1.0843248e-41
1.084605e-41 1.0847451e-41 1.0848853e-41
1.0854458e-41 1.0857261e-41 1.0860063e-41
1.0862866e-41 1.0864267e-41 1.0865668e-41
1.0868471e-41 1.0869872e-41 1.0875477e-41
1.0885286e-41 1.0886688e-41 1.0888089e-41
1.0903503e-41 1.0904905e-41 1.0906306e-41
1.0923122e-41 1.0924523e-41 1.0925924e-41
1.0944141e-41 1.0945542e-41 1.0946944e-41
1.0949746e-41 1.0952549e-41 1.0955351e-41
1.0963759e-41 1.0966562e-41 1.0967963e-41
1.0970766e-41 1.0972167e-41 1.097497e-41
1.0983377e-41 1.098618e-41 1.0988983e-41
1.0991785e-41 1.0994588e-41 1.099739e-41
1.1005798e-41 1.1008601e-41 1.1011403e-41
1.1014206e-41 1.1017009e-41 1.1019811e-41
1.1028219e-41 1.1031022e-41 1.1033824e-41
1.105064e-41 1.1053442e-41 1.1056245e-41
1.1075863e-41 1.1078666e-41 1.1081468e-41
1.1101086e-41 1.1103889e-41 1.1106692e-41
1.112631e-41 1.1129112e-41 1.1131915e-41
1.1140323e-41 1.1141724e-41 1.1143125e-41
1.1148731e-41 1.1151533e-41 1.1154336e-41
1.1162744e-41 1.1165546e-41 1.1166947e-41
1.1172553e-41 1.1175355e-41 1.118096e-41
1.1186566e-41 1.1189368e-41 1.1192171e-41
1.1197776e-41 1.1203381e-41 1.1206184e-41
1.1211789e-41 1.1214592e-41 1.1215993e-41
1.1218796e-41 1.1222999e-41 1.1225802e-41
1.1237012e-41 1.1238414e-41 1.1239815e-41
1.1255229e-41 1.1256631e-41 1.1258032e-41
1.1270644e-41 1.1273446e-41 1.1276249e-41
1.1284657e-41 1.1287459e-41 1.1290262e-41
1.1295867e-41 1.1297268e-41 1.129867e-41
1.1301472e-41 1.1302873e-41 1.1304275e-41
1.1307077e-41 1.1312683e-41 1.1315485e-41
1.1319689e-41 1.1322492e-41 1.1325294e-41
1.1335103e-41 1.1336505e-41 1.1337906e-41
1.1343511e-41 1.1346314e-41 1.135332e-41
1.1358925e-41 1.1361728e-41 1.1364531e-41
1.1372938e-41 1.1375741e-41 1.1378544e-41
1.1398162e-41 1.1400964e-41 1.1403767e-41
1.1423385e-41 1.1426188e-41 1.142899e-41
1.1448608e-41 1.1451411e-41 1.1454214e-41
1.1473832e-41 1.1476634e-41 1.1479437e-41
1.1487845e-41 1.1490647e-41 1.149345e-41
1.1499055e-41 1.1501858e-41 1.1507463e-41
1.1513068e-41 1.1515871e-41 1.1518673e-41
1.1524279e-41 1.1529884e-41 1.1532686e-41
1.1538292e-41 1.1541094e-41 1.1543897e-41
1.1552305e-41 1.1555107e-41 1.155791e-41
1.1563515e-41 1.1566318e-41 1.156912e-41
1.1577528e-41 1.1580331e-41 1.1583133e-41
1.1602751e-41 1.1605554e-41 1.1608356e-41
1.1627975e-41 1.1630777e-41 1.163358e-41
1.1653198e-41 1.1656001e-41 1.1658803e-41
1.1678421e-41 1.1681224e-41 1.1686829e-41
1.1692434e-41 1.1695237e-41 1.169804e-41
1.1703645e-41 1.170925e-41 1.1712053e-41
1.1717658e-41 1.172046e-41 1.1723263e-41
1.1731671e-41 1.1734473e-41 1.1737276e-41
1.1742881e-41 1.1745684e-41 1.1748486e-41
1.1756894e-41 1.1759697e-41 1.1762499e-41
1.1768105e-41 1.1770907e-41 1.1776512e-41
1.1782117e-41 1.178492e-41 1.1787723e-41
1.1807341e-41 1.1810143e-41 1.1812946e-41
1.1832564e-41 1.1835367e-41 1.1838169e-41
1.1857788e-41 1.186059e-41 1.1866195e-41
1.1883011e-41 1.1888616e-41 1.1891419e-41
1.1897024e-41 1.1899827e-41 1.1902629e-41
1.1911037e-41 1.191384e-41 1.1916642e-41
1.1922247e-41 1.192505e-41 1.1927853e-41
1.193626e-41 1.1939063e-41 1.1941866e-41
1.1947471e-41 1.1950273e-41 1.1951675e-41
1.1958681e-41 1.1961484e-41 1.1964286e-41
1.1969891e-41 1.1972694e-41 1.1974095e-41
1.1978299e-41 1.1981102e-41 1.1983904e-41
1.1997917e-41 1.200072e-41 1.2003523e-41
1.2018937e-41 1.2020338e-41 1.2023141e-41
1.2039956e-41 1.2041358e-41 1.2042759e-41
1.2059575e-41 1.2062377e-41 1.2063778e-41
1.2067982e-41 1.2070785e-41 1.2073588e-41
1.2079193e-41 1.2081995e-41 1.2084798e-41
1.2087601e-41 1.2090403e-41 1.2093206e-41
1.2098811e-41 1.2101614e-41 1.2104416e-41
1.210862e-41 1.2110021e-41 1.2112824e-41
1.2118429e-41 1.2121232e-41 1.2124034e-41
1.212964e-41 1.2131041e-41 1.2132442e-41
1.2138047e-41 1.214085e-41 1.2143652e-41
1.2157665e-41 1.2160468e-41 1.2163271e-41
1.2177284e-41 1.2180086e-41 1.2182889e-41
1.2198303e-41 1.2199704e-41 1.2202507e-41
1.2219323e-41 1.2222125e-41 1.2224928e-41
1.2230533e-41 1.2233336e-41 1.2236138e-41
1.2240342e-41 1.2241743e-41 1.2244546e-41
1.2250151e-41 1.2252954e-41 1.2255756e-41
1.2261362e-41 1.2262763e-41 1.2264164e-41
1.2269769e-41 1.2272572e-41 1.2275375e-41
1.228098e-41 1.2283782e-41 1.2285184e-41
1.2289388e-41 1.229219e-41 1.2294993e-41
1.2300598e-41 1.2303401e-41 1.2306203e-41
1.2320216e-41 1.2323019e-41 1.2325821e-41
1.2339834e-41 1.2342637e-41 1.2345439e-41
1.2359452e-41 1.2362255e-41 1.2365058e-41
1.2376268e-41 1.2379071e-41 1.2381873e-41
1.2387478e-41 1.2390281e-41 1.2393084e-41
1.2395886e-41 1.2397288e-41 1.2398689e-41
1.2404294e-41 1.2407097e-41 1.2409899e-41
1.2415504e-41 1.2416906e-41 1.2418307e-41
1.242111e-41 1.2423912e-41 1.2426715e-41
1.243232e-41 1.2435123e-41 1.2437925e-41
1.2440728e-41 1.2442129e-41 1.244353e-41
1.2449136e-41 1.2451938e-41 1.2454741e-41
1.2465951e-41 1.2468754e-41 1.2471556e-41
1.2485569e-41 1.2486971e-41 1.2488372e-41
1.2505187e-41 1.2506589e-41 1.250799e-41
1.2522003e-41 1.2524806e-41 1.2527608e-41
1.2530411e-41 1.2531812e-41 1.2533213e-41
1.2538819e-41 1.2541621e-41 1.2544424e-41
1.2548628e-41 1.2550029e-41 1.255143e-41
1.2554233e-41 1.2555634e-41 1.2558437e-41
1.2564042e-41 1.2566845e-41 1.2569647e-41
1.257245e-41 1.2573851e-41 1.2575252e-41
1.2578055e-41 1.2580858e-41 1.258366e-41
1.2589265e-41 1.2592068e-41 1.2593469e-41
1.2603278e-41 1.2606081e-41 1.2608884e-41
1.2620094e-41 1.2621495e-41 1.2622897e-41
1.2638311e-41 1.2639712e-41 1.2641113e-41
1.2653725e-41 1.2656528e-41 1.265933e-41
1.2662133e-41 1.2663534e-41 1.2664936e-41
1.2667738e-41 1.2670541e-41 1.2673343e-41
1.2678949e-41 1.2681751e-41 1.2683152e-41
1.2685955e-41 1.2687356e-41 1.2688758e-41
1.2692961e-41 1.2695764e-41 1.2698567e-41
1.2704172e-41 1.2705573e-41 1.2706974e-41
1.2709777e-41 1.2711178e-41 1.271258e-41
1.2718185e-41 1.2720987e-41 1.272379e-41
1.2732198e-41 1.2733599e-41 1.2735e-41
1.2749013e-41 1.2750415e-41 1.2751816e-41
1.2763026e-41 1.2765829e-41 1.2768632e-41
1.2777039e-41 1.2778441e-41 1.2779842e-41
1.2785447e-41 1.278825e-41 1.2791052e-41
1.2793855e-41 1.2795256e-41 1.2796658e-41
1.279946e-41 1.2800861e-41 1.2802263e-41
1.2807868e-41 1.2810671e-41 1.2813473e-41
1.2816276e-41 1.2817677e-41 1.2819078e-41
1.2821881e-41 1.2823282e-41 1.2824684e-41
1.2830289e-41 1.2833091e-41 1.2835894e-41
1.2838697e-41 1.2840098e-41 1.2841499e-41
1.285271e-41 1.2855512e-41 1.2858315e-41
1.2866722e-41 1.2868124e-41 1.2869525e-41
1.2883538e-41 1.2884939e-41 1.2886341e-41
1.2897551e-41 1.2900354e-41 1.2901755e-41
1.2904558e-41 1.2905959e-41 1.290736e-41
1.2910163e-41 1.2911564e-41 1.2912965e-41
1.2917169e-41 1.2919972e-41 1.2922774e-41
1.2925577e-41 1.2926978e-41 1.292838e-41
1.2931182e-41 1.2932584e-41 1.2933985e-41
1.2936787e-41 1.293959e-41 1.2942393e-41
1.2946597e-41 1.2947998e-41 1.2949399e-41
1.2952202e-41 1.2953603e-41 1.2955004e-41
1.2967616e-41 1.2969017e-41 1.2970419e-41
1.2978826e-41 1.2980228e-41 1.2981629e-41
1.2994241e-41 1.2995642e-41 1.2997043e-41
1.3006852e-41 1.3009655e-41 1.3012458e-41
1.301526e-41 1.3016661e-41 1.3018063e-41
1.3020865e-41 1.3022267e-41 1.3023668e-41
1.3026471e-41 1.3029273e-41 1.3032076e-41
1.303628e-41 1.3037681e-41 1.3039082e-41
1.3041885e-41 1.3043286e-41 1.3044687e-41
1.304749e-41 1.3048891e-41 1.3051694e-41
1.3057299e-41 1.30587e-41 1.3060102e-41
1.3062904e-41 1.3064306e-41 1.3065707e-41
1.3076917e-41 1.3078319e-41 1.307972e-41
1.3088128e-41 1.3089529e-41 1.309093e-41
1.3102141e-41 1.3103542e-41 1.3104943e-41
1.3113351e-41 1.3114752e-41 1.3116154e-41
1.3121759e-41 1.312316e-41 1.3124561e-41
1.3127364e-41 1.3128765e-41 1.3130167e-41
1.3132969e-41 1.3134371e-41 1.3135772e-41
1.3138574e-41 1.3141377e-41 1.314418e-41
1.3146982e-41 1.3148383e-41 1.3149785e-41
1.3152587e-41 1.3153989e-41 1.315539e-41
1.3158193e-41 1.3159594e-41 1.3160995e-41
1.3163798e-41 1.31666e-41 1.3168002e-41
1.3176409e-41 1.3177811e-41 1.3179212e-41
1.3189021e-41 1.3190422e-41 1.3191824e-41
1.3200232e-41 1.3201633e-41 1.3203034e-41
1.3212843e-41 1.3214245e-41 1.3215646e-41
1.3218448e-41 1.321985e-41 1.3221251e-41
1.3224054e-41 1.3225455e-41 1.3226856e-41
1.3229659e-41 1.323106e-41 1.3233863e-41
1.3236665e-41 1.3238067e-41 1.3239468e-41
1.324227e-41 1.3243672e-41 1.3245073e-41
1.3247876e-41 1.3249277e-41 1.3250678e-41
1.3253481e-41 1.3254882e-41 1.3256283e-41
1.3259086e-41 1.3260487e-41 1.3261889e-41
1.3270296e-41 1.3271698e-41 1.3273099e-41
1.3281507e-41 1.3282908e-41 1.3284309e-41
1.3292717e-41 1.3294119e-41 1.329552e-41
1.3303928e-41 1.3305329e-41 1.330673e-41
1.3309533e-41 1.3310934e-41 1.3312335e-41
1.3315138e-41 1.3316539e-41 1.3317941e-41
1.3320743e-41 1.3322145e-41 1.3323546e-41
1.3326348e-41 1.332775e-41 1.3329151e-41
1.3331954e-41 1.3333355e-41 1.3334756e-41
1.3337559e-41 1.333896e-41 1.3340361e-41
1.3343164e-41 1.3344565e-41 1.3345967e-41
1.3348769e-41 1.335017e-41 1.3351572e-41
1.3354374e-41 1.3355776e-41 1.3357177e-41
1.3365585e-41 1.3366986e-41 1.3368387e-41
1.3376795e-41 1.3378196e-41 1.3379598e-41
1.3388006e-41 1.3389407e-41 1.3390808e-41
1.3393611e-41 1.3395012e-41 1.3396413e-41
1.3399216e-41 1.3400617e-41 1.3402019e-41
1.3404821e-41 1.3406222e-41 1.3407624e-41
1.3410426e-41 1.3411828e-41 1.3413229e-41
1.3416031e-41 1.3417433e-41 1.3418834e-41
1.3421637e-41 1.3423038e-41 1.3424439e-41
1.3427242e-41 1.3428643e-41 1.3430044e-41
1.3432847e-41 1.3434248e-41 1.343565e-41
1.3444057e-41 1.3445459e-41 1.344686e-41
1.3455268e-41 1.3456669e-41 1.345807e-41
1.3466478e-41 1.346788e-41 1.3469281e-41
1.3477689e-41 1.347909e-41 1.3480491e-41
1.3483294e-41 1.3484695e-41 1.3486096e-41
1.3488899e-41 1.34903e-41 1.3491702e-41
1.3494504e-41 1.3495906e-41 1.3497307e-41
1.3500109e-41 1.3501511e-41 1.3502912e-41
1.3505715e-41 1.3507116e-41 1.3508517e-41
1.351132e-41 1.3512721e-41 1.3514122e-41
1.3516925e-41 1.3518326e-41 1.3519728e-41
1.352253e-41 1.3523931e-41 1.3525333e-41
1.3533741e-41 1.3535142e-41 1.3536543e-41
1.3544951e-41 1.3546352e-41 1.3547754e-41
1.3556161e-41 1.3557563e-41 1.3558964e-41
1.3567372e-41 1.3568773e-41 1.3570174e-41
1.3572977e-41 1.3574378e-41 1.357578e-41
1.3578582e-41 1.3579983e-41 1.3581385e-41
1.3584187e-41 1.3585589e-41 1.358699e-41
1.3589793e-41 1.3591194e-41 1.3592595e-41
1.3595398e-41 1.3596799e-41 1.35982e-41
1.3601003e-41 1.3602404e-41 1.3603805e-41
1.3606608e-41 1.3608009e-41 1.3609411e-41
1.3612213e-41 1.3613615e-41 1.3615016e-41
1.3623424e-41 1.3624825e-41 1.3626226e-41
1.3634634e-41 1.3636035e-41 1.3637437e-41
1.3645844e-41 1.3647246e-41 1.3648647e-41
1.3657055e-41 1.3658456e-41 1.3659857e-41
1.366266e-41 1.3664061e-41 1.3665463e-41
1.3668265e-41 1.3669667e-41 1.3671068e-41
1.367387e-41 1.3675272e-41 1.3676673e-41
1.3679476e-41 1.3680877e-41 1.3682278e-41
1.3685081e-41 1.3686482e-41 1.3687883e-41
1.3690686e-41 1.3692087e-41 1.3693489e-41
1.3696291e-41 1.3697692e-41 1.3699094e-41
1.3701896e-41 1.3703298e-41 1.3704699e-41
1.3713107e-41 1.3714508e-41 1.3715909e-41
1.3724317e-41 1.3725718e-41 1.372712e-41
1.3735528e-41 1.3736929e-41 1.373833e-41
1.3746738e-41 1.3748139e-41 1.3749541e-41
1.3752343e-41 1.3753744e-41 1.3755146e-41
1.3757948e-41 1.375935e-41 1.3760751e-41
1.3763554e-41 1.3764955e-41 1.3766356e-41
1.3769159e-41 1.377056e-41 1.3771961e-41
1.3774764e-41 1.3776165e-41 1.3777567e-41
1.3780369e-41 1.378177e-41 1.3783172e-41
1.3785974e-41 1.3787376e-41 1.3788777e-41
1.3791579e-41 1.3792981e-41 1.3794382e-41
1.380279e-41 1.3804191e-41 1.3805592e-41
1.3814e-41 1.3815402e-41 1.3816803e-41
1.3825211e-41 1.3826612e-41 1.3828013e-41
1.3836421e-41 1.3837822e-41 1.3839224e-41
1.3842026e-41 1.3843428e-41 1.3844829e-41
1.3847631e-41 1.3849033e-41 1.3850434e-41
1.3853237e-41 1.3854638e-41 1.3856039e-41
1.3858842e-41 1.3860243e-41 1.3861644e-41
1.3864447e-41 1.3865848e-41 1.386725e-41
1.3870052e-41 1.3871453e-41 1.3872855e-41
1.3875657e-41 1.3877059e-41 1.387846e-41
1.3881263e-41 1.3882664e-41 1.3884065e-41
1.3892473e-41 1.3893874e-41 1.3895276e-41
1.3903683e-41 1.3905085e-41 1.3906486e-41
1.3914894e-41 1.3916295e-41 1.3917696e-41
1.3926104e-41 1.3927505e-41 1.3928907e-41
1.3931709e-41 1.3933111e-41 1.3934512e-41
1.3937315e-41 1.3938716e-41 1.3940117e-41
1.394292e-41 1.3944321e-41 1.3945722e-41
1.3948525e-41 1.3949926e-41 1.3951328e-41
1.395413e-41 1.3955531e-41 1.3956933e-41
1.3959735e-41 1.3961137e-41 1.3962538e-41
1.396534e-41 1.3966742e-41 1.3968143e-41
1.3970946e-41 1.3972347e-41 1.3973748e-41
1.3987761e-41 1.3989163e-41 1.3990564e-41
1.3998972e-41 1.4000373e-41 1.4001774e-41
1.4010182e-41 1.4011583e-41 1.4012985e-41
1.4015787e-41 1.4017189e-41 1.401859e-41
1.4021392e-41 1.4022794e-41 1.4024195e-41
1.4026998e-41 1.4028399e-41 1.40298e-41
1.4032603e-41 1.4034004e-41 1.4035405e-41
1.4038208e-41 1.4039609e-41 1.4041011e-41
1.4043813e-41 1.4045215e-41 1.4046616e-41
1.4049418e-41 1.405082e-41 1.4052221e-41
1.4055024e-41 1.4056425e-41 1.4057826e-41
1.4066234e-41 1.4067635e-41 1.4069037e-41
1.4077444e-41 1.4078846e-41 1.4080247e-41
1.4088655e-41 1.4090056e-41 1.4091457e-41
1.4099865e-41 1.4101266e-41 1.4102668e-41
1.410547e-41 1.4106872e-41 1.4108273e-41
1.4111076e-41 1.4112477e-41 1.4113878e-41
1.4116681e-41 1.4118082e-41 1.4119483e-41
1.4122286e-41 1.4123687e-41 1.4125089e-41
1.4127891e-41 1.4129292e-41 1.4130694e-41
1.4133496e-41 1.4134898e-41 1.4136299e-41
1.4139102e-41 1.4140503e-41 1.4141904e-41
1.4144707e-41 1.4146108e-41 1.4147509e-41
1.4155917e-41 1.4157318e-41 1.415872e-41
1.4167127e-41 1.4168529e-41 1.416993e-41
1.4178338e-41 1.4179739e-41 1.418114e-41
1.4189548e-41 1.419095e-41 1.4192351e-41
1.4195153e-41 1.4196555e-41 1.4197956e-41
1.4200759e-41 1.420216e-41 1.4203561e-41
1.4206364e-41 1.4207765e-41 1.4209166e-41
1.4211969e-41 1.421337e-41 1.4214772e-41
1.4217574e-41 1.4218976e-41 1.4220377e-41
1.4223179e-41 1.4224581e-41 1.4225982e-41
1.4228785e-41 1.4230186e-41 1.4231587e-41
1.423439e-41 1.4235791e-41 1.4237192e-41
1.42456e-41 1.4247001e-41 1.4248403e-41
1.4256811e-41 1.4258212e-41 1.4259613e-41
1.4268021e-41 1.4269422e-41 1.4270824e-41
1.4279231e-41 1.4280633e-41 1.4282034e-41
1.4284837e-41 1.4286238e-41 1.4287639e-41
1.4290442e-41 1.4291843e-41 1.4293244e-41
1.4296047e-41 1.4297448e-41 1.429885e-41
1.4301652e-41 1.4303053e-41 1.4304455e-41
1.4307257e-41 1.4308659e-41 1.431006e-41
1.4312863e-41 1.4314264e-41 1.4315665e-41
1.4318468e-41 1.4319869e-41 1.432127e-41
1.4324073e-41 1.4325474e-41 1.4326875e-41
1.4335283e-41 1.4336685e-41 1.4338086e-41
1.4346494e-41 1.4347895e-41 1.4349296e-41
1.4357704e-41 1.4359105e-41 1.4360507e-41
1.4368914e-41 1.4370316e-41 1.4371717e-41
1.437452e-41 1.4375921e-41 1.4377322e-41
1.4380125e-41 1.4381526e-41 1.4382927e-41
1.438573e-41 1.4387131e-41 1.4388533e-41
1.4391335e-41 1.4392737e-41 1.4394138e-41
1.439694e-41 1.4398342e-41 1.4399743e-41
1.4402546e-41 1.4403947e-41 1.4405348e-41
1.4408151e-41 1.4409552e-41 1.4410953e-41
1.4413756e-41 1.4415157e-41 1.4416559e-41
1.4424966e-41 1.4426368e-41 1.4427769e-41
1.4436177e-41 1.4437578e-41 1.4438979e-41
1.4447387e-41 1.4448788e-41 1.445019e-41
1.4458598e-41 1.4459999e-41 1.44614e-41
1.4464203e-41 1.4465604e-41 1.4467005e-41
1.4469808e-41 1.4471209e-41 1.4472611e-41
1.4475413e-41 1.4476814e-41 1.4478216e-41
1.4481018e-41 1.448242e-41 1.4483821e-41
1.4486624e-41 1.4488025e-41 1.4489426e-41
1.4492229e-41 1.449363e-41 1.4495031e-41
1.4497834e-41 1.4499235e-41 1.4500637e-41
1.4503439e-41 1.450484e-41 1.4506242e-41
1.4514649e-41 1.4516051e-41 1.4517452e-41
1.452586e-41 1.4527261e-41 1.4528662e-41
1.453707e-41 1.4538472e-41 1.4539873e-41
1.4548281e-41 1.4549682e-41 1.4551083e-41
1.4553886e-41 1.4555287e-41 1.4556688e-41
1.4559491e-41 1.4560892e-41 1.4562294e-41
1.4565096e-41 1.4566498e-41 1.4567899e-41
1.4570701e-41 1.4572103e-41 1.4573504e-41
1.4576307e-41 1.4577708e-41 1.4579109e-41
1.4581912e-41 1.4583313e-41 1.4584714e-41
1.4587517e-41 1.4588918e-41 1.459032e-41
1.4593122e-41 1.4594524e-41 1.4595925e-41
1.4604333e-41 1.4605734e-41 1.4607135e-41
1.4615543e-41 1.4616944e-41 1.4618346e-41
1.4626753e-41 1.4628155e-41 1.4629556e-41
1.4637964e-41 1.4639365e-41 1.4640766e-41
1.4643569e-41 1.464497e-41 1.4646372e-41
1.4649174e-41 1.4650575e-41 1.4651977e-41
1.4654779e-41 1.4656181e-41 1.4657582e-41
1.4660385e-41 1.4661786e-41 1.4663187e-41
1.466599e-41 1.4667391e-41 1.4668792e-41
1.4671595e-41 1.4672996e-41 1.4674398e-41
1.46772e-41 1.4678601e-41 1.4680003e-41
1.4682805e-41 1.4684207e-41 1.4685608e-41
1.4694016e-41 1.4695417e-41 1.4696818e-41
1.4705226e-41 1.4706627e-41 1.4708029e-41
1.4716436e-41 1.4717838e-41 1.4719239e-41
1.4727647e-41 1.4729048e-41 1.4730449e-41
1.4733252e-41 1.4734653e-41 1.4736055e-41
1.4738857e-41 1.4740259e-41 1.474166e-41
1.4744462e-41 1.4745864e-41 1.4747265e-41
1.4750068e-41 1.4751469e-41 1.475287e-41
1.4755673e-41 1.4757074e-41 1.4758475e-41
1.4761278e-41 1.4762679e-41 1.4764081e-41
1.4766883e-41 1.4768285e-41 1.4769686e-41
1.4772488e-41 1.477389e-41 1.4775291e-41
1.4783699e-41 1.47851e-41 1.4786501e-41
1.4794909e-41 1.479631e-41 1.4797712e-41
1.480612e-41 1.4807521e-41 1.4808922e-41
1.481733e-41 1.4818731e-41 1.4820133e-41
1.4822935e-41 1.4824336e-41 1.4825738e-41
1.482854e-41 1.4829942e-41 1.4831343e-41
1.4834146e-41 1.4835547e-41 1.4836948e-41
1.4839751e-41 1.4841152e-41 1.4842553e-41
1.4845356e-41 1.4846757e-41 1.4848159e-41
1.4850961e-41 1.4852362e-41 1.4853764e-41
1.4856566e-41 1.4857968e-41 1.4859369e-41
1.4862172e-41 1.4863573e-41 1.4864974e-41
1.4873382e-41 1.4874783e-41 1.4876184e-41
1.4884592e-41 1.4885994e-41 1.4887395e-41
1.4895803e-41 1.4897204e-41 1.4898605e-41
1.4907013e-41 1.4908414e-41 1.4909816e-41
1.4912618e-41 1.491402e-41 1.4915421e-41
1.4918223e-41 1.4919625e-41 1.4921026e-41
1.4923829e-41 1.492523e-41 1.4926631e-41
1.4929434e-41 1.4930835e-41 1.4932236e-41
1.4935039e-41 1.493644e-41 1.4937842e-41
1.4940644e-41 1.4942046e-41 1.4943447e-41
1.4946249e-41 1.4947651e-41 1.4949052e-41
1.4951855e-41 1.4953256e-41 1.4954657e-41
1.4963065e-41 1.4964466e-41 1.4965868e-41
1.4974275e-41 1.4975677e-41 1.4977078e-41
1.4985486e-41 1.4986887e-41 1.4988288e-41
1.4996696e-41 1.4998097e-41 1.4999499e-41
1.5002301e-41 1.5003703e-41 1.5005104e-41
1.5007907e-41 1.5009308e-41 1.5010709e-41
1.5013512e-41 1.5014913e-41 1.5016314e-41
1.5019117e-41 1.5020518e-41 1.502192e-41
1.5024722e-41 1.5026123e-41 1.5027525e-41
1.5030327e-41 1.5031729e-41 1.503313e-41
1.5035933e-41 1.5037334e-41 1.5038735e-41
1.5041538e-41 1.5042939e-41 1.504434e-41
1.5052748e-41 1.5054149e-41 1.5055551e-41
1.5063958e-41 1.506536e-41 1.5066761e-41
1.5075169e-41 1.507657e-41 1.5077971e-41
1.5086379e-41 1.5087781e-41 1.5089182e-41
1.5091984e-41 1.5093386e-41 1.5094787e-41
1.509759e-41 1.5098991e-41 1.5100392e-41
1.5103195e-41 1.5104596e-41 1.5105997e-41
1.51088e-41 1.5110201e-41 1.5111603e-41
1.5114405e-41 1.5115807e-41 1.5117208e-41
1.512001e-41 1.5121412e-41 1.5122813e-41
1.5125616e-41 1.5127017e-41 1.5128418e-41
1.5131221e-41 1.5132622e-41 1.5134023e-41
1.5142431e-41 1.5143833e-41 1.5145234e-41
1.5153642e-41 1.5155043e-41 1.5156444e-41
1.5164852e-41 1.5166253e-41 1.5167655e-41
1.5176062e-41 1.5177464e-41 1.5178865e-41
1.5181668e-41 1.5183069e-41 1.518447e-41
1.5187273e-41 1.5188674e-41 1.5190075e-41
1.5192878e-41 1.5194279e-41 1.5195681e-41
1.5198483e-41 1.5199884e-41 1.5201286e-41
1.5204088e-41 1.520549e-41 1.5206891e-41
1.5209694e-41 1.5211095e-41 1.5212496e-41
1.5215299e-41 1.52167e-41 1.5218101e-41
1.5220904e-41 1.5222305e-41 1.5223707e-41
1.5232114e-41 1.5233516e-41 1.5234917e-41
1.5243325e-41 1.5244726e-41 1.5246127e-41
1.5254535e-41 1.5255936e-41 1.5257338e-41
1.5265745e-41 1.5267147e-41 1.5268548e-41
1.5271351e-41 1.5272752e-41 1.5274153e-41
1.5276956e-41 1.5278357e-41 1.5279758e-41
1.5282561e-41 1.5283962e-41 1.5285364e-41
1.5288166e-41 1.5289568e-41 1.5290969e-41
1.5293771e-41 1.5295173e-41 1.5296574e-41
1.5299377e-41 1.5300778e-41 1.5302179e-41
1.5304982e-41 1.5306383e-41 1.5307784e-41
1.5310587e-41 1.5311988e-41 1.531339e-41
1.5321797e-41 1.5323199e-41 1.53246e-41
1.5333008e-41 1.5334409e-41 1.533581e-41
1.5344218e-41 1.5345619e-41 1.5347021e-41
1.5355429e-41 1.535683e-41 1.5358231e-41
1.5361034e-41 1.5362435e-41 1.5363836e-41
1.5366639e-41 1.536804e-41 1.5369442e-41
1.5372244e-41 1.5373645e-41 1.5375047e-41
1.5377849e-41 1.5379251e-41 1.5380652e-41
1.5383455e-41 1.5384856e-41 1.5386257e-41
1.538906e-41 1.5390461e-41 1.5391862e-41
1.5394665e-41 1.5396066e-41 1.5397468e-41
1.540027e-41 1.5401671e-41 1.5403073e-41
1.5411481e-41 1.5412882e-41 1.5414283e-41
1.5422691e-41 1.5424092e-41 1.5425493e-41
1.5433901e-41 1.5435303e-41 1.5436704e-41
1.5445112e-41 1.5446513e-41 1.5447914e-41
1.5450717e-41 1.5452118e-41 1.5453519e-41
1.5456322e-41 1.5457723e-41 1.5459125e-41
1.5461927e-41 1.5463329e-41 1.546473e-41
1.5467532e-41 1.5468934e-41 1.5470335e-41
1.5473138e-41 1.5474539e-41 1.547594e-41
1.5478743e-41 1.5480144e-41 1.5481545e-41
1.5484348e-41 1.5485749e-41 1.5487151e-41
1.5489953e-41 1.5491355e-41 1.5492756e-41
1.5501164e-41 1.5502565e-41 1.5503966e-41
1.5512374e-41 1.5513775e-41 1.5515177e-41
1.5523584e-41 1.5524986e-41 1.5526387e-41
1.5534795e-41 1.5536196e-41 1.5537597e-41
1.55404e-41 1.5541801e-41 1.5543203e-41
1.5546005e-41 1.5547406e-41 1.5548808e-41
1.555161e-41 1.5553012e-41 1.5554413e-41
1.5557216e-41 1.5558617e-41 1.5560018e-41
1.5562821e-41 1.5564222e-41 1.5565623e-41
1.5568426e-41 1.5569827e-41 1.5571229e-41
1.5574031e-41 1.5575432e-41 1.5576834e-41
1.5579636e-41 1.5581038e-41 1.5582439e-41
1.5590847e-41 1.5592248e-41 1.5593649e-41
1.5602057e-41 1.5603458e-41 1.560486e-41
1.5613267e-41 1.5614669e-41 1.561607e-41
1.5624478e-41 1.5625879e-41 1.562728e-41
1.5630083e-41 1.5631484e-41 1.5632886e-41
1.5635688e-41 1.563709e-41 1.5638491e-41
1.5641293e-41 1.5642695e-41 1.5644096e-41
1.5646899e-41 1.56483e-41 1.5649701e-41
1.5652504e-41 1.5653905e-41 1.5655306e-41
1.5658109e-41 1.565951e-41 1.5660912e-41
1.5663714e-41 1.5665116e-41 1.5666517e-41
1.5669319e-41 1.5670721e-41 1.5672122e-41
1.568053e-41 1.5681931e-41 1.5683332e-41
1.569174e-41 1.5693142e-41 1.5694543e-41
1.5702951e-41 1.5704352e-41 1.5705753e-41
1.5714161e-41 1.5715562e-41 1.5716964e-41
1.5719766e-41 1.5721167e-41 1.5722569e-41
1.5725371e-41 1.5726773e-41 1.5728174e-41
1.5730977e-41 1.5732378e-41 1.5733779e-41
1.5736582e-41 1.5737983e-41 1.5739384e-41
1.5742187e-41 1.5743588e-41 1.574499e-41
1.5747792e-41 1.5749193e-41 1.5750595e-41
1.5753397e-41 1.5754799e-41 1.57562e-41
1.5759003e-41 1.5760404e-41 1.5761805e-41
1.5770213e-41 1.5771614e-41 1.5773016e-41
1.5781423e-41 1.5782825e-41 1.5784226e-41
1.5792634e-41 1.5794035e-41 1.5795436e-41
1.5803844e-41 1.5805245e-41 1.5806647e-41
1.5809449e-41 1.5810851e-41 1.5812252e-41
1.5815054e-41 1.5816456e-41 1.5817857e-41
1.582066e-41 1.5822061e-41 1.5823462e-41
1.5826265e-41 1.5827666e-41 1.5829067e-41
1.583187e-41 1.5833271e-41 1.5834673e-41
1.5837475e-41 1.5838877e-41 1.5840278e-41
1.584308e-41 1.5844482e-41 1.5845883e-41
1.5848686e-41 1.5850087e-41 1.5851488e-41
1.5859896e-41 1.5861297e-41 1.5862699e-41
1.5871106e-41 1.5872508e-41 1.5873909e-41
1.5882317e-41 1.5883718e-41 1.5885119e-41
1.5893527e-41 1.5894928e-41 1.589633e-41
1.5899132e-41 1.5900534e-41 1.5901935e-41
1.5904738e-41 1.5906139e-41 1.590754e-41
1.5910343e-41 1.5911744e-41 1.5913145e-41
1.5915948e-41 1.5917349e-41 1.5918751e-41
1.5921553e-41 1.5922954e-41 1.5924356e-41
1.5927158e-41 1.592856e-41 1.5929961e-41
1.5932764e-41 1.5934165e-41 1.5935566e-41
1.5938369e-41 1.593977e-41 1.5941171e-41
1.5949579e-41 1.595098e-41 1.5952382e-41
1.596079e-41 1.5962191e-41 1.5963592e-41
1.5972e-41 1.5973401e-41 1.5974802e-41
1.598321e-41 1.5984612e-41 1.5986013e-41
1.5988815e-41 1.5990217e-41 1.5991618e-41
1.5994421e-41 1.5995822e-41 1.5997223e-41
1.6000026e-41 1.6001427e-41 1.6002828e-41
1.6005631e-41 1.6007032e-41 1.6008434e-41
1.6011236e-41 1.6012638e-41 1.6014039e-41
1.6016841e-41 1.6018243e-41 1.6019644e-41
1.6022447e-41 1.6023848e-41 1.6025249e-41
1.6028052e-41 1.6029453e-41 1.6030854e-41
1.6039262e-41 1.6040664e-41 1.6042065e-41
1.6050473e-41 1.6051874e-41 1.6053275e-41
1.6061683e-41 1.6063084e-41 1.6064486e-41
1.6072893e-41 1.6074295e-41 1.6075696e-41
1.6078499e-41 1.60799e-41 1.6081301e-41
1.6084104e-41 1.6085505e-41 1.6086906e-41
1.6089709e-41 1.609111e-41 1.6092512e-41
1.6095314e-41 1.6096715e-41 1.6098117e-41
1.6100919e-41 1.6102321e-41 1.6103722e-41
1.6106525e-41 1.6107926e-41 1.6109327e-41
1.611213e-41 1.6113531e-41 1.6114932e-41
1.6117735e-41 1.6119136e-41 1.6120538e-41
1.6128945e-41 1.6130347e-41 1.6131748e-41
1.6140156e-41 1.6141557e-41 1.6142958e-41
1.6151366e-41 1.6152767e-41 1.6154169e-41
1.6162576e-41 1.6163978e-41 1.6165379e-41
1.6168182e-41 1.6169583e-41 1.6170984e-41
1.6173787e-41 1.6175188e-41 1.6176589e-41
1.6179392e-41 1.6180793e-41 1.6182195e-41
1.6184997e-41 1.6186399e-41 1.61878e-41
1.6190602e-41 1.6192004e-41 1.6193405e-41
1.6196208e-41 1.6197609e-41 1.619901e-41
1.6201813e-41 1.6203214e-41 1.6204615e-41
1.6207418e-41 1.6208819e-41 1.6210221e-41
1.6218628e-41 1.622003e-41 1.6221431e-41
1.6229839e-41 1.623124e-41 1.6232641e-41
1.6241049e-41 1.624245e-41 1.6243852e-41
1.625226e-41 1.6253661e-41 1.6255062e-41
1.6257865e-41 1.6259266e-41 1.6260667e-41
1.626347e-41 1.6264871e-41 1.6266273e-41
1.6269075e-41 1.6270476e-41 1.6271878e-41
1.627468e-41 1.6276082e-41 1.6277483e-41
1.6280286e-41 1.6281687e-41 1.6283088e-41
1.6285891e-41 1.6287292e-41 1.6288693e-41
1.6291496e-41 1.6292897e-41 1.6294299e-41
1.6297101e-41 1.6298502e-41 1.6299904e-41
1.6308312e-41 1.6309713e-41 1.6311114e-41
1.6319522e-41 1.6320923e-41 1.6322325e-41
1.6330732e-41 1.6332134e-41 1.6333535e-41
1.6341943e-41 1.6343344e-41 1.6344745e-41
1.6347548e-41 1.6348949e-41 1.635035e-41
1.6353153e-41 1.6354554e-41 1.6355956e-41
1.6358758e-41 1.636016e-41 1.6361561e-41
1.6364363e-41 1.6365765e-41 1.6367166e-41
1.6369969e-41 1.637137e-41 1.6372771e-41
1.6375574e-41 1.6376975e-41 1.6378376e-41
1.6381179e-41 1.638258e-41 1.6383982e-41
1.6386784e-41 1.6388186e-41 1.6389587e-41
1.6397995e-41 1.6399396e-41 1.6400797e-41
1.6409205e-41 1.6410606e-41 1.6412008e-41
1.6420415e-41 1.6421817e-41 1.6423218e-41
1.6431626e-41 1.6433027e-41 1.6434428e-41
1.6437231e-41 1.6438632e-41 1.6440034e-41
1.6442836e-41 1.6444237e-41 1.6445639e-41
1.6448441e-41 1.6449843e-41 1.6451244e-41
1.6454047e-41 1.6455448e-41 1.6456849e-41
1.6459652e-41 1.6461053e-41 1.6462454e-41
1.6465257e-41 1.6466658e-41 1.646806e-41
1.6470862e-41 1.6472263e-41 1.6473665e-41
1.6476467e-41 1.6477869e-41 1.647927e-41
1.6487678e-41 1.6489079e-41 1.649048e-41
1.6498888e-41 1.6500289e-41 1.6501691e-41
1.6510099e-41 1.65115e-41 1.6512901e-41
1.6521309e-41 1.652271e-41 1.6524111e-41
1.6526914e-41 1.6528315e-41 1.6529717e-41
1.6532519e-41 1.6533921e-41 1.6535322e-41
1.6538124e-41 1.6539526e-41 1.6540927e-41
1.654373e-41 1.6545131e-41 1.6546532e-41
1.6549335e-41 1.6550736e-41 1.6552137e-41
1.655494e-41 1.6556341e-41 1.6557743e-41
1.6560545e-41 1.6561947e-41 1.6563348e-41
1.656615e-41 1.6567552e-41 1.6568953e-41
1.6577361e-41 1.6578762e-41 1.6580163e-41
1.6588571e-41 1.6589973e-41 1.6591374e-41
1.6599782e-41 1.6601183e-41 1.6602584e-41
1.6610992e-41 1.6612393e-41 1.6613795e-41
1.6616597e-41 1.6617998e-41 1.66194e-41
1.6622202e-41 1.6623604e-41 1.6625005e-41
1.6627808e-41 1.6629209e-41 1.663061e-41
1.6633413e-41 1.6634814e-41 1.6636215e-41
1.6639018e-41 1.6640419e-41 1.6641821e-41
1.6644623e-41 1.6646024e-41 1.6647426e-41
1.6650228e-41 1.665163e-41 1.6653031e-41
1.6655834e-41 1.6657235e-41 1.6658636e-41
1.6667044e-41 1.6668445e-41 1.6669847e-41
1.6678254e-41 1.6679656e-41 1.6681057e-41
1.6689465e-41 1.6690866e-41 1.6692267e-41
1.6700675e-41 1.6702076e-41 1.6703478e-41
1.670628e-41 1.6707682e-41 1.6709083e-41
1.6711885e-41 1.6713287e-41 1.6714688e-41
1.6717491e-41 1.6718892e-41 1.6720293e-41
1.6723096e-41 1.6724497e-41 1.6725898e-41
1.6728701e-41 1.6730102e-41 1.6731504e-41
1.6734306e-41 1.6735708e-41 1.6737109e-41
1.6739911e-41 1.6741313e-41 1.6742714e-41
1.6745517e-41 1.6746918e-41 1.6748319e-41
1.6756727e-41 1.6758128e-41 1.675953e-41
1.6767937e-41 1.6769339e-41 1.677074e-41
1.6779148e-41 1.6780549e-41 1.678195e-41
1.6790358e-41 1.6791759e-41 1.6793161e-41
1.6795963e-41 1.6797365e-41 1.6798766e-41
1.6801569e-41 1.680297e-41 1.6804371e-41
1.6807174e-41 1.6808575e-41 1.6809976e-41
1.6812779e-41 1.681418e-41 1.6815582e-41
1.6818384e-41 1.6819785e-41 1.6821187e-41
1.6823989e-41 1.6825391e-41 1.6826792e-41
1.6829595e-41 1.6830996e-41 1.6832397e-41
1.68352e-41 1.6836601e-41 1.6838002e-41
1.684641e-41 1.6847811e-41 1.6849213e-41
1.6857621e-41 1.6859022e-41 1.6860423e-41
1.6868831e-41 1.6870232e-41 1.6871634e-41
1.6880041e-41 1.6881443e-41 1.6882844e-41
1.6885646e-41 1.6887048e-41 1.6888449e-41
1.6891252e-41 1.6892653e-41 1.6894054e-41
1.6896857e-41 1.6898258e-41 1.6899659e-41
1.6902462e-41 1.6903863e-41 1.6905265e-41
1.6908067e-41 1.6909469e-41 1.691087e-41
1.6913672e-41 1.6915074e-41 1.6916475e-41
1.6919278e-41 1.6920679e-41 1.692208e-41
1.6930488e-41 1.6931889e-41 1.6933291e-41
1.6941698e-41 1.69431e-41 1.6944501e-41
1.6952909e-41 1.695431e-41 1.6955711e-41
1.6964119e-41 1.6965521e-41 1.6966922e-41
1.6969724e-41 1.6971126e-41 1.6972527e-41
1.697533e-41 1.6976731e-41 1.6978132e-41
1.6980935e-41 1.6982336e-41 1.6983737e-41
1.698654e-41 1.6987941e-41 1.6989343e-41
1.6992145e-41 1.6993546e-41 1.6994948e-41
1.699775e-41 1.6999152e-41 1.7000553e-41
1.7003356e-41 1.7004757e-41 1.7006158e-41
1.7008961e-41 1.7010362e-41 1.7011763e-41
1.7020171e-41 1.7021572e-41 1.7022974e-41
1.7031382e-41 1.7032783e-41 1.7034184e-41
1.7042592e-41 1.7043993e-41 1.7045395e-41
1.7053802e-41 1.7055204e-41 1.7056605e-41
1.7059408e-41 1.7060809e-41 1.706221e-41
1.7065013e-41 1.7066414e-41 1.7067815e-41
1.7070618e-41 1.7072019e-41 1.707342e-41
1.7076223e-41 1.7077624e-41 1.7079026e-41
1.7081828e-41 1.708323e-41 1.7084631e-41
1.7087433e-41 1.7088835e-41 1.7090236e-41
1.7093039e-41 1.709444e-41 1.7095841e-41
1.7098644e-41 1.7100045e-41 1.7101446e-41
1.7109854e-41 1.7111256e-41 1.7112657e-41
1.7121065e-41 1.7122466e-41 1.7123867e-41
1.7132275e-41 1.7133676e-41 1.7135078e-41
1.7143485e-41 1.7144887e-41 1.7146288e-41
1.7149091e-41 1.7150492e-41 1.7151893e-41
1.7154696e-41 1.7156097e-41 1.7157498e-41
1.7160301e-41 1.7161702e-41 1.7163104e-41
1.7165906e-41 1.7167307e-41 1.7168709e-41
1.7171511e-41 1.7172913e-41 1.7174314e-41
1.7177117e-41 1.7178518e-41 1.7179919e-41
1.7182722e-41 1.7184123e-41 1.7185524e-41
1.7188327e-41 1.7189728e-41 1.719113e-41
1.7199537e-41 1.7200939e-41 1.720234e-41
1.7210748e-41 1.7212149e-41 1.721355e-41
1.7221958e-41 1.7223359e-41 1.7224761e-41
1.7233169e-41 1.723457e-41 1.7235971e-41
1.7238774e-41 1.7240175e-41 1.7241576e-41
1.7244379e-41 1.724578e-41 1.7247181e-41
1.7249984e-41 1.7251385e-41 1.7252787e-41
1.7255589e-41 1.7256991e-41 1.7258392e-41
1.7261194e-41 1.7262596e-41 1.7263997e-41
1.72668e-41 1.7268201e-41 1.7269602e-41
1.7272405e-41 1.7273806e-41 1.7275207e-41
1.727801e-41 1.7279411e-41 1.7280813e-41
1.728922e-41 1.7290622e-41 1.7292023e-41
1.7300431e-41 1.7301832e-41 1.7303233e-41
1.7311641e-41 1.7313043e-41 1.7314444e-41
1.7322852e-41 1.7324253e-41 1.7325654e-41
1.7328457e-41 1.7329858e-41 1.7331259e-41
1.7334062e-41 1.7335463e-41 1.7336865e-41
1.7339667e-41 1.7341068e-41 1.734247e-41
1.7345272e-41 1.7346674e-41 1.7348075e-41
1.7350878e-41 1.7352279e-41 1.735368e-41
1.7356483e-41 1.7357884e-41 1.7359285e-41
1.7362088e-41 1.7363489e-41 1.7364891e-41
1.7367693e-41 1.7369094e-41 1.7370496e-41
1.7378904e-41 1.7380305e-41 1.7381706e-41
1.7390114e-41 1.7391515e-41 1.7392917e-41
1.7401324e-41 1.7402726e-41 1.7404127e-41
1.7412535e-41 1.7413936e-41 1.7415337e-41
1.741814e-41 1.7419541e-41 1.7420943e-41
1.7423745e-41 1.7425146e-41 1.7426548e-41
1.742935e-41 1.7430752e-41 1.7432153e-41
1.7434955e-41 1.7436357e-41 1.7437758e-41
1.7440561e-41 1.7441962e-41 1.7443363e-41
1.7446166e-41 1.7447567e-41 1.7448968e-41
1.7451771e-41 1.7453172e-41 1.7454574e-41
1.7457376e-41 1.7458778e-41 1.7460179e-41
1.7468587e-41 1.7469988e-41 1.7471389e-41
1.7479797e-41 1.7481198e-41 1.74826e-41
1.7491007e-41 1.7492409e-41 1.749381e-41
1.7502218e-41 1.7503619e-41 1.750502e-41
1.7507823e-41 1.7509224e-41 1.7510626e-41
1.7513428e-41 1.751483e-41 1.7516231e-41
1.7519033e-41 1.7520435e-41 1.7521836e-41
1.7524639e-41 1.752604e-41 1.7527441e-41
1.7530244e-41 1.7531645e-41 1.7533046e-41
1.7535849e-41 1.753725e-41 1.7538652e-41
1.7541454e-41 1.7542855e-41 1.7544257e-41
1.7547059e-41 1.7548461e-41 1.7549862e-41
1.755827e-41 1.7559671e-41 1.7561072e-41
1.756948e-41 1.7570881e-41 1.7572283e-41
1.7580691e-41 1.7582092e-41 1.7583493e-41
1.7591901e-41 1.7593302e-41 1.7594704e-41
1.7597506e-41 1.7598907e-41 1.7600309e-41
1.7603111e-41 1.7604513e-41 1.7605914e-41
1.7608717e-41 1.7610118e-41 1.7611519e-41
1.7614322e-41 1.7615723e-41 1.7617124e-41
1.7619927e-41 1.7621328e-41 1.7622729e-41
1.7625532e-41 1.7626933e-41 1.7628335e-41
1.7631137e-41 1.7632539e-41 1.763394e-41
1.7636742e-41 1.7638144e-41 1.7639545e-41
1.7647953e-41 1.7649354e-41 1.7650755e-41
1.7659163e-41 1.7660565e-41 1.7661966e-41
1.7670374e-41 1.7671775e-41 1.7673176e-41
1.7681584e-41 1.7682985e-41 1.7684387e-41
1.7687189e-41 1.7688591e-41 1.7689992e-41
1.7692794e-41 1.7694196e-41 1.7695597e-41
1.76984e-41 1.7699801e-41 1.7701202e-41
1.7704005e-41 1.7705406e-41 1.7706807e-41
1.770961e-41 1.7711011e-41 1.7712413e-41
1.7715215e-41 1.7716616e-41 1.7718018e-41
1.772082e-41 1.7722222e-41 1.7723623e-41
1.7726426e-41 1.7727827e-41 1.7729228e-41
1.7737636e-41 1.7739037e-41 1.7740439e-41
1.7748846e-41 1.7750248e-41 1.7751649e-41
1.7760057e-41 1.7761458e-41 1.7762859e-41
1.7771267e-41 1.7772668e-41 1.777407e-41
1.7776872e-41 1.7778274e-41 1.7779675e-41
1.7782478e-41 1.7783879e-41 1.778528e-41
1.7788083e-41 1.7789484e-41 1.7790885e-41
1.7793688e-41 1.7795089e-41 1.779649e-41
1.7799293e-41 1.7800694e-41 1.7802096e-41
1.7804898e-41 1.78063e-41 1.7807701e-41
1.7810503e-41 1.7811905e-41 1.7813306e-41
1.7816109e-41 1.781751e-41 1.7818911e-41
1.7827319e-41 1.782872e-41 1.7830122e-41
1.7838529e-41 1.7839931e-41 1.7841332e-41
1.784974e-41 1.7851141e-41 1.7852542e-41
1.786095e-41 1.7862352e-41 1.7863753e-41
1.7866555e-41 1.7867957e-41 1.7869358e-41
1.7872161e-41 1.7873562e-41 1.7874963e-41
1.7877766e-41 1.7879167e-41 1.7880568e-41
1.7883371e-41 1.7884772e-41 1.7886174e-41
1.7888976e-41 1.7890377e-41 1.7891779e-41
1.7894581e-41 1.7895983e-41 1.7897384e-41
1.7900187e-41 1.7901588e-41 1.7902989e-41
1.7905792e-41 1.7907193e-41 1.7908594e-41
1.7917002e-41 1.7918403e-41 1.7919805e-41
1.7928213e-41 1.7929614e-41 1.7931015e-41
1.7939423e-41 1.7940824e-41 1.7942226e-41
1.7950633e-41 1.7952035e-41 1.7953436e-41
1.7956239e-41 1.795764e-41 1.7959041e-41
1.7961844e-41 1.7963245e-41 1.7964646e-41
1.7967449e-41 1.796885e-41 1.7970252e-41
1.7973054e-41 1.7974455e-41 1.7975857e-41
1.7978659e-41 1.7980061e-41 1.7981462e-41
1.7984264e-41 1.7985666e-41 1.7987067e-41
1.798987e-41 1.7991271e-41 1.7992672e-41
1.7995475e-41 1.7996876e-41 1.7998277e-41
1.8006685e-41 1.8008087e-41 1.8009488e-41
1.8017896e-41 1.8019297e-41 1.8020698e-41
1.8029106e-41 1.8030507e-41 1.8031909e-41
1.8040316e-41 1.8041718e-41 1.8043119e-41
1.8045922e-41 1.8047323e-41 1.8048724e-41
1.8051527e-41 1.8052928e-41 1.8054329e-41
1.8057132e-41 1.8058533e-41 1.8059935e-41
1.8062737e-41 1.8064139e-41 1.806554e-41
1.8068342e-41 1.8069744e-41 1.8071145e-41
1.8073948e-41 1.8075349e-41 1.807675e-41
1.8079553e-41 1.8080954e-41 1.8082355e-41
1.8085158e-41 1.8086559e-41 1.8087961e-41
1.8096368e-41 1.809777e-41 1.8099171e-41
1.8107579e-41 1.810898e-41 1.8110381e-41
1.8118789e-41 1.812019e-41 1.8121592e-41
1.813e-41 1.8131401e-41 1.8132802e-41
1.8135605e-41 1.8137006e-41 1.8138407e-41
1.814121e-41 1.8142611e-41 1.8144013e-41
1.8146815e-41 1.8148216e-41 1.8149618e-41
1.815242e-41 1.8153822e-41 1.8155223e-41
1.8158026e-41 1.8159427e-41 1.8160828e-41
1.8163631e-41 1.8165032e-41 1.8166433e-41
1.8169236e-41 1.8170637e-41 1.8172038e-41
1.8174841e-41 1.8176242e-41 1.8177644e-41
1.8186051e-41 1.8187453e-41 1.8188854e-41
1.8197262e-41 1.8198663e-41 1.8200064e-41
1.8208472e-41 1.8209874e-41 1.8211275e-41
1.8219683e-41 1.8221084e-41 1.8222485e-41
1.8225288e-41 1.8226689e-41 1.822809e-41
1.8230893e-41 1.8232294e-41 1.8233696e-41
1.8236498e-41 1.82379e-41 1.8239301e-41
1.8242103e-41 1.8243505e-41 1.8244906e-41
1.8247709e-41 1.824911e-41 1.8250511e-41
1.8253314e-41 1.8254715e-41 1.8256116e-41
1.8258919e-41 1.826032e-41 1.8261722e-41
1.8264524e-41 1.8265925e-41 1.8267327e-41
1.8275735e-41 1.8277136e-41 1.8278537e-41
1.8286945e-41 1.8288346e-41 1.8289748e-41
1.8298155e-41 1.8299557e-41 1.8300958e-41
1.8309366e-41 1.8310767e-41 1.8312168e-41
1.8314971e-41 1.8316372e-41 1.8317774e-41
1.8320576e-41 1.8321977e-41 1.8323379e-41
1.8326181e-41 1.8327583e-41 1.8328984e-41
1.8331787e-41 1.8333188e-41 1.8334589e-41
1.8337392e-41 1.8338793e-41 1.8340194e-41
1.8342997e-41 1.8344398e-41 1.8345799e-41
1.8348602e-41 1.8350003e-41 1.8351405e-41
1.8354207e-41 1.8355609e-41 1.835701e-41
1.8365418e-41 1.8366819e-41 1.836822e-41
1.8382233e-41 1.8383635e-41 1.8385036e-41
1.8393444e-41 1.8394845e-41 1.8396246e-41
1.8399049e-41 1.840045e-41 1.8401851e-41
1.8404654e-41 1.8406055e-41 1.8407457e-41
1.8410259e-41 1.8411661e-41 1.8413062e-41
1.8415864e-41 1.8417266e-41 1.8418667e-41
1.842147e-41 1.8422871e-41 1.8424272e-41
1.8427075e-41 1.8428476e-41 1.8429877e-41
1.843268e-41 1.8434081e-41 1.8435483e-41
1.844389e-41 1.8445292e-41 1.8446693e-41
1.8455101e-41 1.8456502e-41 1.8457903e-41
1.8466311e-41 1.8467712e-41 1.8469114e-41
1.8477522e-41 1.8478923e-41 1.8480324e-41
1.8483127e-41 1.8484528e-41 1.8485929e-41
1.8488732e-41 1.8490133e-41 1.8491535e-41
1.8494337e-41 1.8495738e-41 1.849714e-41
1.8499942e-41 1.8501344e-41 1.8502745e-41
1.8505548e-41 1.8506949e-41 1.850835e-41
1.8511153e-41 1.8512554e-41 1.8513955e-41
1.8516758e-41 1.8518159e-41 1.8519561e-41
1.8522363e-41 1.8523764e-41 1.8525166e-41
1.8533573e-41 1.8534975e-41 1.8536376e-41
1.8544784e-41 1.8546185e-41 1.8547586e-41
1.8555994e-41 1.8557396e-41 1.8558797e-41
1.8567205e-41 1.8568606e-41 1.8570007e-41
1.857281e-41 1.8574211e-41 1.8575612e-41
1.8578415e-41 1.8579816e-41 1.8581218e-41
1.858402e-41 1.8585422e-41 1.8586823e-41
1.8589625e-41 1.8591027e-41 1.8592428e-41
1.8595231e-41 1.8596632e-41 1.8598033e-41
1.8600836e-41 1.8602237e-41 1.8603638e-41
1.8606441e-41 1.8607842e-41 1.8609244e-41
1.8612046e-41 1.8613448e-41 1.8614849e-41
1.8623257e-41 1.8624658e-41 1.8626059e-41
1.8634467e-41 1.8635868e-41 1.863727e-41
1.8645677e-41 1.8647079e-41 1.864848e-41
1.8656888e-41 1.8658289e-41 1.865969e-41
1.8662493e-41 1.8663894e-41 1.8665296e-41
1.8668098e-41 1.8669499e-41 1.8670901e-41
1.8673703e-41 1.8675105e-41 1.8676506e-41
1.8679309e-41 1.868071e-41 1.8682111e-41
1.8684914e-41 1.8686315e-41 1.8687716e-41
1.8690519e-41 1.869192e-41 1.8693322e-41
1.8696124e-41 1.8697525e-41 1.8698927e-41
1.8707334e-41 1.8708736e-41 1.8710137e-41
1.8718545e-41 1.8719946e-41 1.8721347e-41
1.8729755e-41 1.8731157e-41 1.8732558e-41
1.873536e-41 1.8736762e-41 1.8738163e-41
1.8740966e-41 1.8742367e-41 1.8743768e-41
1.8746571e-41 1.8747972e-41 1.8749373e-41
1.8752176e-41 1.8753577e-41 1.8754979e-41
