# .PCD v0.7 - Point Cloud Data file format
VERSION 0.7
FIELDS x y z
SIZE 4 4 4
TYPE F F F
COUNT 1 1 1
WIDTH 1363
HEIGHT 1
VIEWPOINT 0 0 0 1 0 0 0
POINTS 1363
DATA ascii
2.0762477 1.416851 -0.043875352
2.1098874 1.434955 0.044538539
1.8949391 1.2877994 -0.44534823
2.2067552 1.4991465 0.23340309
2.0434346 1.3850707 -0.1293745
2.2020624 1.4847516 0.2323572
1.9293921 1.3009022 -0.36855966
1.9640328 1.3232607 -0.29078028
2.0841837 1.4015707 -0.043840446
1.9003985 1.2726862 -0.444585
2.2119408 1.4807669 0.23288015
1.9240714 1.2875675 -0.36668244
2.2472544 1.5032699 0.33197212
1.970289 1.3175015 -0.291024
2.007813 1.3415779 -0.2112655
2.1212215 1.4109383 0.044468731
1.8678093 1.2419088 -0.51783729
2.1673665 1.4405408 0.13638751
2.2140348 1.4704435 0.23253153
2.2508335 1.4943188 0.33172837
1.9666064 1.3051271 -0.28980532
2.010823 1.3334605 -0.21109121
2.0889163 1.3836733 -0.043735731
1.8642147 1.2296898 -0.51558781
2.1740491 1.4340657 0.13649218
1.9078177 1.257974 -0.44420335
1.9282873 1.2705055 -0.36574382
2.2645848 1.4915179 0.33294708
1.9630862 1.2924527 -0.28858662
2.0853791 1.3708804 -0.043561205
1.8731729 1.2267044 -0.51693749
2.2192438 1.4516799 0.23200859
1.9324895 1.2641046 -0.36574382
1.9690235 1.2870214 -0.28883037
2.0100751 1.3128517 -0.21004534
2.0868025 1.3614069 -0.043491397
2.1274981 1.3831973 0.044294208
1.8758092 1.2190968 -0.5164876
2.2173619 1.4399713 0.23131134
1.9701735 1.2779794 -0.28834289
2.0079572 1.301494 -0.2093481
2.0915411 1.3541157 -0.043491397
2.1325531 1.3753908 0.044294208
1.8671623 1.2037655 -0.51288843
1.9315211 1.2438266 -0.36386663
2.2683952 1.4602009 0.33124092
1.9715055 1.2686018 -0.28785542
2.0110383 1.2930477 -0.20917378
2.1392641 1.3686436 0.044329114
1.8715616 1.1969143 -0.51288843
2.1621351 1.382744 0.13450342
2.2586744 1.4422615 0.32904723
1.9692295 1.2574383 -0.28688046
2.0222578 1.290307 -0.20987104
2.0562813 1.3110063 -0.12780441
2.1421032 1.3604693 0.044294208
1.8722302 1.188612 -0.51198858
2.1768258 1.3819888 0.13513145
1.9129056 1.213967 -0.44038719
1.9501668 1.236659 -0.36574382
2.2735043 1.4411408 0.33050969
2.0214765 1.280395 -0.2093481
2.0589302 1.3031114 -0.12769975
2.0870178 1.3203781 -0.043107443
2.1432195 1.3512257 0.0442244
1.8794587 1.1844754 -0.51288843
2.1850162 1.3765116 0.13534079
1.9102762 1.2034315 -0.43886071
2.2237628 1.4003789 0.22991684
1.9425547 1.2228192 -0.36355373
2.2765908 1.4325356 0.33026594
1.9777424 1.2440059 -0.28688046
2.0155914 1.2673209 -0.20830221
2.0916145 1.3130845 -0.043107443
2.1377516 1.3373723 0.044014968
1.8802769 1.1758413 -0.51198858
1.9177949 1.1988368 -0.43962395
2.2252586 1.3904959 0.22956821
1.9871253 1.2402475 -0.28761166
2.0200019 1.2602787 -0.20830221
2.0944879 1.3047187 -0.04307254
2.1441059 1.3309572 0.044049874
1.8777469 1.1651605 -0.510189
1.9169632 1.1890301 -0.4384791
2.2300985 1.3827204 0.22956821
1.9409698 1.202984 -0.36167651
2.2696617 1.4061525 0.32782856
1.9830036 1.2280781 -0.28639299
2.0243893 1.2532194 -0.20830221
2.062048 1.2755371 -0.12707172
2.0988026 1.2977663 -0.04307254
2.1434 1.3206933 0.04394516
1.8766229 1.1558608 -0.50883931
2.1871698 1.3466082 0.13460809
2.2349119 1.3749268 0.22956821
1.9449487 1.1965404 -0.36167651
2.2709301 1.3965391 0.32734108
2.0321474 1.2482305 -0.20865084
2.0628622 1.2666024 -0.12686236
2.1033204 1.2904316 -0.04307254
2.1479974 1.3132027 0.04394516
1.8806463 1.1493026 -0.50883931
2.1867435 1.3358423 0.13429408
1.9233361 1.1749314 -0.43809745
2.236058 1.3654318 0.2292196
1.9524864 1.1918019 -0.36230227
2.2757907 1.388604 0.32734108
2.0330889 1.2390559 -0.20830221
2.095855 1.2758039 -0.04282821
1.8829795 1.1417218 -0.50838935
1.9192339 1.1627882 -0.43618938
2.2308218 1.3510348 0.22817372
1.9551511 1.1836151 -0.36198941
2.2840207 1.382707 0.32782856
2.0271726 1.2257656 -0.20725635
2.0718729 1.2518084 -0.12686236
2.0951605 1.2653781 -0.042723492
2.1504853 1.2936752 0.043805543
1.8904915 1.1368216 -0.50928921
1.9249641 1.1570927 -0.436571
2.2321091 1.3411866 0.22782511
1.9524963 1.1727159 -0.36073789
2.2788615 1.368196 0.32636613
1.9897445 1.194142 -0.28493056
2.0282338 1.2162786 -0.20690772
2.0997839 1.257691 -0.042723492
2.1532705 1.2851362 0.043770637
1.8877543 1.1262214 -0.50748956
1.9342508 1.1530457 -0.43771586
2.2404325 1.3350368 0.22817372
1.9533881 1.1635287 -0.36011216
2.2768018 1.356169 0.32539117
1.9904892 1.1851585 -0.28444308
2.0324674 1.2091907 -0.20690772
2.1076 1.2523963 -0.0427933
2.1506379 1.2739124 0.043631013
1.8881252 1.117969 -0.50658977
2.1983066 1.3011109 0.13387538
2.2446153 1.3279921 0.22817372
1.953633 1.1553754 -0.35948643
2.2812865 1.3486118 0.32539117
2.0362558 1.2027999 -0.20690772
2.0743337 1.2243158 -0.12623434
2.1117411 1.2454007 -0.0427933
2.153348 1.265384 0.043596111
1.8920165 1.1113709 -0.50658977
2.1959455 1.2893848 0.13345671
1.9283117 1.1322393 -0.43466291
1.961062 1.1505477 -0.36011216
2.2842672 1.3396367 0.32514745
2.0404425 1.1956842 -0.20690772
2.0837653 1.2200955 -0.12654836
2.1091712 1.2339829 -0.04265368
2.1612067 1.2598742 0.043665919
1.8942003 1.103779 -0.50613987
2.2056108 1.284727 0.13377072
1.9271634 1.1225365 -0.43351805
2.2435012 1.3062744 0.22712786
1.9667732 1.1446893 -0.36042506
2.2889299 1.3316542 0.32514745
1.9940079 1.1596087 -0.28322437
2.0342686 1.1825471 -0.20586187
2.1100068 1.224605 -0.042583872
2.1517429 1.2443136 0.043386683
1.8997288 1.0981359 -0.50658977
1.9361693 1.1187496 -0.43466291
2.2411463 1.2944485 0.22643061
2.2952833 1.3246491 0.32539117
1.9980434 1.1526418 -0.28322437
2.0349317 1.1734487 -0.20551322
2.1160023 1.2182294 -0.042618778
2.1491354 1.2328144 0.043247063
1.8934069 1.0856822 -0.50389034
1.9366565 1.1100314 -0.4338997
2.2491093 1.2885981 0.22677925
2.2895572 1.3107109 0.32392874
1.9986091 1.1436878 -0.2827369
2.0392191 1.1659819 -0.20551322
2.1202414 1.2108362 -0.042618778
2.1603775 1.2292613 0.043386683
1.9458323 1.1058362 -0.43504456
2.255549 1.2813306 0.22695355
1.9668241 1.116858 -0.35823497
2.2923918 1.3017311 0.32368499
1.9991363 1.134745 -0.28224945
2.0467429 1.160823 -0.20586187
2.0886416 1.1836227 -0.12581564
2.1227148 1.2024425 -0.042583872
2.1579022 1.217404 0.043247063
1.9011273 1.0721055 -0.50389034
1.9445502 1.0961446 -0.4338997
1.9741528 1.111925 -0.3588607
2.2988777 1.2942936 0.32392874
2.054255 1.1556256 -0.20621049
2.1199257 1.1911081 -0.042444255
2.1636715 1.2112197 0.043281965
1.9046723 1.0657947 -0.50389034
2.2135351 1.2386247 0.13293335
1.9378934 1.08394 -0.43160996
2.2433496 1.2542812 0.22486182
1.9743807 1.1034443 -0.35823497
2.2996907 1.2847273 0.32344127
2.0033479 1.1191746 -0.28176194
2.0406792 1.1390957 -0.20446737
2.1256106 1.1850445 -0.042479157
2.1624322 1.2011245 0.043177254
1.908196 1.059473 -0.50389034
1.9449106 1.0794127 -0.4323732
2.2509813 1.2487675 0.22521043
2.007242 1.1121752 -0.28176194
2.041157 1.1300347 -0.20411874
2.1332347 1.1795524 -0.042548969
2.159606 1.1897087 0.043037634
1.9084687 1.0509253 -0.50299054
1.9488536 1.0722774 -0.4323732
2.2537975 1.2395481 0.22503611
2.3031633 1.2661763 0.32271007
2.0145919 1.1070735 -0.28224945
2.0503278 1.1257811 -0.20464167
2.1692166 1.1846611 0.043142349
1.9054657 1.0401889 -0.50119096
2.2178309 1.2102044 0.13240999
1.9543085 1.066408 -0.43275481
2.2651069 1.23549 0.22573337
2.3025603 1.2548747 0.32197884
2.0612445 1.1224279 -0.20533893
2.1768556 1.1789861 0.043212157
1.9090854 1.0335307 -0.50119096
2.2202842 1.2015063 0.13230531
1.9511117 1.0558436 -0.43122834
2.2676537 1.2266271 0.22555906
1.979169 1.0701326 -0.35635775
2.3069258 1.2468312 0.32197884
2.0581377 1.1114386 -0.20464167
2.1403906 1.153929 -0.042444255
2.1844811 1.1732731 0.043281965
1.9161152 1.0287044 -0.50209075
1.9478661 1.0453126 -0.42970186
2.2613871 1.2130539 0.2245132
1.9828923 1.063218 -0.35635775
2.3165133 1.2415836 0.32271007
2.3558874 1.2621564 0.42331171
2.0620046 1.104248 -0.20464167
2.1353891 1.1421087 -0.042269729
2.1777709 1.1603812 0.04307254
1.9160757 1.0205129 -0.50119096
1.9480364 1.0366627 -0.42893866
2.2568123 1.2004749 0.22364163
2.3153598 1.2310984 0.32197884
2.0175819 1.0723168 -0.28054324
2.0570483 1.0923706 -0.20377012
2.1411295 1.1355842 -0.042304631
2.1711998 1.1471665 0.042863112
1.9127337 1.0101775 -0.49939132
1.9549361 1.0320296 -0.42970186
2.2590189 1.1920538 0.22346732
2.3178868 1.2220834 0.32173508
2.0178006 1.0634159 -0.28005576
2.0588965 1.0846151 -0.20359582
2.1450801 1.1281037 -0.042304631
2.1822767 1.1432921 0.043002732
1.960266 1.0261103 -0.43008351
2.2719934 1.188779 0.22433887
1.9832326 1.0372506 -0.35448053
2.311583 1.2084674 0.32027265
2.0662017 1.0792669 -0.20394444
2.1105835 1.1015106 -0.12476893
2.1490052 1.1206087 -0.042304631
2.1880283 1.1365898 0.043037634
1.9266576 1.0003916 -0.50119096
2.2247584 1.1546837 0.13136327
1.9551234 1.014739 -0.42817542
2.2761288 1.1808416 0.22433887
1.9903488 1.0321397 -0.35510629
2.3122628 1.1985635 0.31978518
2.3662636 1.2255071 0.42206025
2.0734954 1.0738801 -0.20429306
2.1404693 1.106672 -0.042060301
2.1937602 1.1298614 0.04307254
1.9266725 0.99187672 -0.50029117
1.9551618 1.0061119 -0.42741215
2.2660632 1.1655978 0.22294438
1.9904257 1.0233797 -0.35448053
2.3670127 1.2154346 0.42143452
2.0665972 1.0611745 -0.20324717
2.1443191 1.0991942 -0.042060301
2.1780999 1.1121938 0.042688586
1.9353303 0.98780245 -0.50164086
1.9551647 0.99749595 -0.42664891
2.2701173 1.1576822 0.22294438
2.3747616 1.2089576 0.42206025
2.0614107 1.0494351 -0.20237562
2.1427948 1.0889838 -0.041955583
2.178401 1.1027771 0.042618778
1.9283342 0.97576129 -0.49894145
1.9673939 0.99509591 -0.42855701
2.2777009 1.1515483 0.22329301
1.9904702 1.0058942 -0.35322908
2.3211432 1.1724945 0.3192977
2.0289645 1.0244598 -0.27908084
2.3754404 1.19888 0.42143452
2.0792911 1.049414 -0.20377012
2.1519406 1.0841972 -0.042060301
2.1840246 1.0960628 0.04265368
1.9299859 0.96815169 -0.49849153
2.2368965 1.1221093 0.13115391
1.9743657 0.98998183 -0.42932025
2.2781446 1.1418045 0.22294438
2.3198974 1.161718 0.31856647
2.3776362 1.1901124 0.42112163
2.0829411 1.0421511 -0.20377012
2.1205537 1.0600431 -0.12424557
2.1573126 1.0779493 -0.042095207
2.1930172 1.0914887 0.042758394
1.9279517 0.95914179 -0.49714181
2.231858 1.1098472 0.13063055
1.9619871 0.97521889 -0.42588571
2.2856848 1.1356188 0.22329301
1.9955013 0.99144417 -0.35291618
2.3290703 1.1566678 0.3192977
2.3746977 1.1782942 0.41987014
2.1521029 1.065974 -0.041920681
2.1968141 1.0838264 0.042758394
1.9452704 0.95930082 -0.50074106
2.239109 1.104206 0.1308399
1.9652096 0.96870857 -0.42588571
2.2858634 1.1262723 0.22294438
1.9989501 0.98447198 -0.35291618
2.3295317 1.1467779 0.31881022
2.3715022 1.1669248 0.41861868
2.0828357 1.0244305 -0.20307288
2.146652 1.0544227 -0.041746158
2.196804 1.0747775 0.042688586
1.9414382 0.94942081 -0.49894145
2.232183 1.0911223 0.13021187
1.9721073 0.96356606 -0.42664891
2.2772491 1.1121652 0.22172421
2.0338025 0.99239147 -0.27786213
2.379112 1.1603708 0.41924441
2.0810261 1.014535 -0.20254995
2.1557131 1.0495495 -0.041850869
2.1919165 1.0619754 0.042514063
1.9345462 0.93686247 -0.49624202
2.2415607 1.0855435 0.13052589
1.9773927 0.95718735 -0.42703056
2.2813098 1.1038117 0.22172421
2.328742 1.1257589 0.31759155
2.0393851 0.985439 -0.27810585
2.0901129 1.0094998 -0.20307288
2.1577446 1.0407722 -0.041815966
2.1990311 1.0564321 0.042583872
1.9429123 0.93297327 -0.49759173
1.9789519 0.94942933 -0.42664891
2.2797596 1.0932566 0.22120127
2.0020249 0.96006912 -0.35166472
2.3288827 1.1163136 0.31710407
2.3891363 1.1441698 0.4195573
2.1541476 1.0297844 -0.041676346
2.2099273 1.0521886 0.042723492
1.9479165 0.92702329 -0.4980416
2.2526913 1.0715851 0.13073523
1.9749979 0.93948877 -0.42512247
2.2959683 1.0916789 0.22242144
2.3327649 1.108178 0.31710407
2.3806233 1.1298949 0.41736722
2.0879359 0.99097908 -0.20220132
2.1132369 1.0020827 -0.12257081
2.1649575 1.025684 -0.041815966
2.2009273 1.0384942 0.042479157
1.9764892 0.9317522 -0.42474085
2.2835441 1.0760149 0.22085266
2.3438027 1.1034108 0.31807902
2.3809779 1.1198957 0.41674146
2.080565 0.97859615 -0.20115545
2.1576638 1.0130209 -0.041606538
2.2009161 1.0291117 0.042409346
2.2546887 1.0532961 0.13042122
1.9797299 0.92484677 -0.42474085
2.2836754 1.0663519 0.22050403
2.3440425 1.0935436 0.31759155
2.3884535 1.1132474 0.41736722
2.0893855 0.97385317 -0.20167838
2.1684391 1.0088576 -0.041746158
1.9811648 0.91710538 -0.42435926
2.2819588 1.0558643 0.21998109
2.0098557 0.92953509 -0.3507261
2.3334305 1.0786904 0.31564164
2.3941185 1.105731 0.41768005
2.0909636 0.96571797 -0.20150407
2.1363087 0.98575741 -0.12330353
2.1755798 1.0029562 -0.041815966
2.202595 1.0112183 0.042304631
2.2509146 1.0329263 0.12979318
1.9914916 0.91345865 -0.42588571
2.2983086 1.0537041 0.22120127
2.014884 0.92333716 -0.35103899
2.3335719 1.0688858 0.31515417
2.3941796 1.0961415 0.41705433
2.0906985 0.95675558 -0.20115545
2.1361039 0.97663265 -0.12309418
2.1734376 0.99324185 -0.041711252
2.2059364 1.0039082 0.042304631
2.2581427 1.0267168 0.13000253
1.9857316 0.90243959 -0.42397761
2.2983449 1.0440265 0.22085266
2.017935 0.91664994 -0.35103899
2.3479483 1.066066 0.31661656
2.3925948 1.0853288 0.41611573
2.0976541 0.95109773 -0.20150407
2.1714256 0.98317623 -0.041606538
2.2130725 0.99784732 0.042374443
1.986923 0.89504367 -0.42359596
2.2981603 1.0347648 0.22050403
2.0211225 0.90960085 -0.35103899
2.3444142 1.0546056 0.31564164
2.3925767 1.0757701 0.41549
2.0917106 0.94005227 -0.20063251
2.1427026 0.96206903 -0.12309418
2.1692011 0.97351319 -0.04150182
2.2669032 1.0121355 0.13010719
1.9900351 0.88810301 -0.42359596
2.292661 1.0226775 0.21963248
2.3515251 1.0484414 0.31612909
2.3981221 1.0682151 0.41580287
2.089519 0.93031341 -0.20010957
2.1762409 0.96755952 -0.041571636
1.9931232 0.88115054 -0.42359596
2.2960398 1.0150687 0.21963248
2.0182328 0.89183027 -0.34947464
2.3442745 1.0354161 0.31466666
2.4018366 1.059837 0.41580287
2.0927529 0.92301536 -0.20010957
2.1457112 0.94547701 -0.12288483
2.2087491 0.96819448 0.042095207
2.268599 0.99348438 0.12979318
2.0017347 0.87620169 -0.42474085
2.3015697 1.0074458 0.21980678
2.0214877 0.88442755 -0.34947464
2.3498733 1.0276107 0.31491041
2.4057047 1.0510273 0.41580287
2.1034262 0.91852665 -0.20080683
2.1418395 0.93441218 -0.12246615
2.1812761 0.9511627 -0.041536726
2.2251232 0.96566564 0.042339537
2.2648952 0.98198545 0.1293745
1.9975764 0.86608464 -0.42321438
2.3052471 0.99900275 0.21980678
2.0247154 0.87701291 -0.34947464
2.3554454 1.0197803 0.31515417
2.4004753 1.0382825 0.41423854
2.1066191 0.9111802 -0.20080683
2.1810756 0.94157684 -0.041466918
2.2248065 0.95631272 0.042269729
2.2738147 0.97643828 0.12968852
1.9951755 0.85678297 -0.42206952
2.3032269 0.98859268 0.21928383
2.0313954 0.87149704 -0.35010037
2.3589904 1.0115526 0.31515417
2.0599377 0.88289088 -0.275181
2.4004536 1.0283405 0.41361275
2.0987988 0.89911324 -0.19976096
2.1769943 0.93081242 -0.041327298
2.2189317 0.94462389 0.042095207
2.0017669 0.85135037 -0.42283276
2.3606796 1.0025364 0.31491041
2.0701625 0.87915927 -0.27615595
2.4074876 1.0219177 0.41423854
2.0982559 0.89022559 -0.19941233
2.1874337 0.92670995 -0.041466918
2.2183671 0.93570662 0.042025398
2.2747195 0.95900846 0.1293745
2.3209202 0.97753239 0.22032972
2.0299978 0.8545838 -0.34884888
2.3530133 0.99008268 0.31344795
2.0767264 0.87382883 -0.27664346
2.4163253 1.0162264 0.41517711
2.1030333 0.88403422 -0.19958666
2.1563609 0.90556544 -0.12257081
2.190495 0.91945046 -0.041466918
2.221458 0.92834455 0.042025398
2.2706807 0.94798505 0.12895581
2.0109928 0.83956808 -0.42359596
2.0328205 0.84784782 -0.34884888
2.3489547 0.97921842 0.31247303
2.4180343 1.0070267 0.41486427
2.1061068 0.87668729 -0.19958666
2.15382 0.89610749 -0.12225681
2.1936913 0.911798 -0.041466918
2.220989 0.91905558 0.041955583
2.2665927 0.93700141 0.12853712
2.006799 0.82919246 -0.42206952
2.3240051 0.95978451 0.21998109
2.0359144 0.84039098 -0.34884888
2.363368 0.97555816 0.31393546
2.410578 0.99406099 0.41298702
2.1146801 0.87160844 -0.20010957
2.1931622 0.90261346 -0.04139711
2.2261932 0.91166753 0.041990492
2.2790918 0.93286622 0.12906048
2.00423 0.81995159 -0.42092466
2.3125875 0.94563407 0.21858659
2.0424926 0.83477426 -0.34947464
2.3706033 0.96839023 0.31442294
2.0693712 0.84491682 -0.2744498
2.4122038 0.98489416 0.41267416
2.1084859 0.86045784 -0.19923802
2.1833363 0.88967061 -0.041152775
2.2292039 0.90428066 0.041990492
2.2804837 0.92415422 0.12895581
2.0107188 0.81442606 -0.4216879
2.312181 0.93606001 0.21823798
2.4137959 0.97572708 0.41236129
2.4646833 0.9957968 0.51671082
2.1938467 0.88503587 -0.041292395
2.0152309 0.80848426 -0.42206952
2.3134229 0.92764634 0.21806367
2.0371263 0.81644189 -0.34759742
2.3642404 0.94706547 0.31271678
2.0787601 0.83228707 -0.27493724
2.4263575 0.97096437 0.41392565
2.1162915 0.84645683 -0.19941233
2.4626753 0.98500049 0.51556593
2.1987793 0.87811452 -0.041327298
2.2298884 0.88647854 0.041885775
2.2813113 0.90599942 0.1286418
2.0200052 0.80181628 -0.42245111
2.326067 0.92283517 0.21893522
2.0401049 0.80897045 -0.34759742
2.3638411 0.93734276 0.31222928
2.0742712 0.82209963 -0.27396232
2.4278948 0.96176296 0.41361275
2.4589674 0.97307765 0.51403946
2.2018316 0.87043345 -0.041327298
2.2349832 0.87903214 0.041920681
2.2790396 0.89544123 0.12832777
2.0154827 0.79188901 -0.42092466
2.3292742 0.91470939 0.21893522
2.0484328 0.80400884 -0.34853604
2.3765006 0.932298 0.31344795
2.41853 0.94781071 0.4114227
2.19942 0.86017299 -0.041222587
2.2417648 0.87267643 0.041990492
2.2877359 0.88965154 0.1286418
2.0165415 0.7837857 -0.42054302
2.3177538 0.90039486 0.21754073
2.0532072 0.79721099 -0.34884888
2.3778903 0.92327762 0.31320426
2.0782499 0.80651832 -0.27371857
2.4126143 0.93579262 0.40985835
2.1307569 0.82603812 -0.19993527
2.1986794 0.85104609 -0.041152775
2.2391996 0.86268866 0.041885775
2.0191293 0.77709478 -0.42054302
2.3207271 0.89270324 0.21754073
2.0447767 0.78614509 -0.34697169
2.4195549 0.9287805 0.41048408
2.1223235 0.81468397 -0.1988894
2.2016366 0.8433665 -0.041152775
2.0254993 0.77143902 -0.42130631
2.3275533 0.88601398 0.21788934
2.0512009 0.78040802 -0.34759742
2.3787112 0.90453875 0.31247303
2.0856857 0.79269391 -0.27396232
2.4320154 0.92383689 0.41204843
2.1326044 0.81010127 -0.19958666
2.1735799 0.82479715 -0.12183812
2.2101765 0.83780313 -0.041257489
2.2395546 0.84491742 0.04178106
2.2855628 0.86181921 0.12801376
2.3306317 0.87788433 0.21788934
2.0520637 0.77254665 -0.34728456
2.3799963 0.89553022 0.31222928
2.422123 0.9108988 0.40985835
2.1298246 0.80054855 -0.19906372
2.4700618 0.92794335 0.51289463
2.1727059 0.81580126 -0.12162878
2.2129428 0.83046871 -0.041257489
2.2498374 0.84028524 0.041920681
2.2940211 0.85633111 0.12832777
2.0233455 0.75488883 -0.41977981
2.3372636 0.87154365 0.21823798
2.0490611 0.76366836 -0.34634593
2.3829529 0.88763231 0.31222928
2.4288328 0.90424073 0.41048408
2.4786458 0.92179966 0.51403946
2.1753991 0.80859226 -0.12162878
2.2100608 0.82103699 -0.041152775
2.250736 0.83212584 0.041885775
2.3007431 0.84970266 0.12853712
2.0239961 0.74749535 -0.41939822
2.3326645 0.86102784 0.21754073
2.0515826 0.75686866 -0.34634593
2.3877456 0.88041365 0.31247303
2.4282672 0.89439088 0.40985835
2.1332173 0.78571677 -0.1988894
2.4706342 0.90950733 0.51174974
2.1799433 0.80206305 -0.12173345
2.205406 0.81055754 -0.041013155
2.2461147 0.82151711 0.041746158
2.2980676 0.83960956 0.12822311
2.0284371 0.74109882 -0.41977981
2.3281696 0.85014701 0.21684349
2.3908045 0.87207294 0.31247303
2.4350863 0.88726223 0.41048408
2.1322031 0.77690196 -0.19854078
2.1808527 0.79376602 -0.12162878
2.2119803 0.80422133 -0.041082963
2.247088 0.81299186 0.041711252
2.3009846 0.83158213 0.12822311
2.0310121 0.73401326 -0.41977981
2.3348706 0.84336913 0.2171921
2.378896 0.85833162 0.31052312
2.0914683 0.75421315 -0.27298734
2.4381688 0.87875611 0.41048408
2.1423993 0.772156 -0.19923802
2.1704557 0.78141326 -0.12089607
2.2147741 0.79649454 -0.041082963
2.2499125 0.80514252 0.041711252
2.2925889 0.81951195 0.12759508
2.0354104 0.72758055 -0.42016143
2.341553 0.83655381 0.21754073
2.3781385 0.84868854 0.31003565
2.4468038 0.87222922 0.4114227
2.1432054 0.7640034 -0.19906372
2.1712887 0.77316153 -0.1207914
2.2213089 0.79009944 -0.041152775
2.2527089 0.79728436 0.041711252
2.2952938 0.81190544 0.12759508
2.024981 0.71589005 -0.41749012
2.3500943 0.83036697 0.21806367
2.0582244 0.72683555 -0.3457202
2.399806 0.84698832 0.31247303
2.4366424 0.8595112 0.40923262
2.1496167 0.75784391 -0.19941233
2.1852777 0.76955754 -0.12141944
2.2163715 0.78007394 -0.041013155
2.2591152 0.79113209 0.04178106
2.305655 0.80652565 0.12801376
2.0274673 0.70881855 -0.41749012
2.3510978 0.82150072 0.21788934
2.0643532 0.72130883 -0.34634593
2.3988531 0.83771712 0.31198555
2.0972497 0.73198307 -0.27274361
2.4396276 0.85100108 0.40923262
2.1428425 0.74705577 -0.19854078
2.1802728 0.7596795 -0.12100074
2.2153041 0.77101737 -0.040943347
2.2524149 0.77996922 0.041606538
2.3141186 0.80043155 0.12832777
2.0372281 0.70465773 -0.41901657
2.34816 0.81174737 0.21736643
2.3980098 0.82804322 0.31149808
2.0979156 0.72400957 -0.27249986
2.4425836 0.84247929 0.40923262
2.1416698 0.73827314 -0.19819216
2.2179818 0.76328027 -0.040943347
2.2645836 0.77534014 0.04178106
2.0435128 0.69845557 -0.41977981
2.3454628 0.80120373 0.21684349
2.3914924 0.81645989 0.31027937
2.1079454 0.71924573 -0.27347484
2.4492481 0.83522475 0.40985835
2.1442342 0.73079222 -0.19819216
2.2225258 0.75617689 -0.040978249
2.2655158 0.76639456 0.041746158
2.3120825 0.78169656 0.12790908
2.0459383 0.69131857 -0.41977981
2.3557963 0.7955609 0.21754073
2.4521489 0.82666951 0.40985835
2.1562126 0.72648317 -0.19906372
2.1939163 0.73833507 -0.12131476
2.2232568 0.74777621 -0.040943347
2.2642522 0.75760788 0.041676346
2.3129025 0.77298969 0.12780441
2.0371666 0.68044037 -0.41749012
2.3585587 0.78733337 0.21754073
2.3952508 0.79911727 0.31003565
2.4437754 0.81435722 0.40798113
2.2182631 0.73748803 -0.040803727
2.2687812 0.75032794 0.041711252
2.3155868 0.76491088 0.12780441
2.0766273 0.68517125 -0.34634593
2.4112222 0.79510236 0.3117418
2.4503558 0.80705839 0.40860689
2.1441991 0.70580673 -0.19749491
2.267585 0.74116182 0.041641444
2.0455999 0.66742057 -0.41825336
2.4102082 0.78545111 0.31125432
2.4531581 0.79849952 0.40860689
2.1542282 0.70078367 -0.19819216
2.2366707 0.72630793 -0.041048057
2.2645774 0.73100233 0.041536726
2.0553911 0.66268522 -0.41977981
2.3552961 0.75892478 0.21649487
2.397954 0.77174622 0.30930442
2.1146266 0.6801542 -0.27274361
2.459691 0.79114169 0.40923262
2.1623518 0.69508827 -0.19871511
2.2353845 0.71727353 -0.040978249
2.2727041 0.72531307 0.041641444
2.3158581 0.73819357 0.12738572
2.0539505 0.65431517 -0.41901657
2.3579311 0.75069797 0.21649487
2.4023919 0.76439124 0.30954817
2.466203 0.78374684 0.40985835
2.1609674 0.68632925 -0.19836646
2.2752223 0.7173748 0.041641444
2.3184206 0.7301057 0.12738572
2.048619 0.64514107 -0.41749012
2.3642082 0.74407136 0.21684349
2.0784538 0.65374023 -0.34509447
2.406939 0.75659651 0.30979189
2.4576156 0.77158368 0.40798113
2.2327044 0.69925952 -0.040838633
2.2815306 0.7106182 0.041711252
2.3209553 0.72200781 0.12738572
2.0433598 0.63565284 -0.41596362
2.3553758 0.73226577 0.21579762
2.0807233 0.6464805 -0.34509447
2.4076698 0.74760073 0.30954817
2.4602938 0.76300079 0.40798113
2.1560738 0.66865432 -0.19749491
2.235132 0.69146103 -0.040838633
2.2763524 0.7002973 0.041571636
2.3291883 0.71566319 0.12769975
2.0530727 0.63082427 -0.41749012
2.0791905 0.63805383 -0.34446874
2.4197533 0.7421037 0.31076685
2.4629424 0.75440747 0.40798113
2.1526797 0.65937293 -0.19697197
2.2432687 0.68540925 -0.040943347
2.27687 0.69176519 0.041536726
2.0590198 0.62479341 -0.41825336
2.364244 0.71695954 0.21614623
2.4147298 0.73135042 0.30979189
2.1203628 0.64179027 -0.27201241
2.4655607 0.7458061 0.40798113
2.1625965 0.65416265 -0.19766922
2.2101731 0.66771096 -0.12100074
2.2475622 0.67815167 -0.040978249
2.2831008 0.684964 0.041606538
2.3322153 0.69881064 0.12759508
2.0611882 0.61760175 -0.41825336
2.3667319 0.70870405 0.21614623
2.0873792 0.62465554 -0.34509447
2.4153664 0.72234756 0.30954817
2.4681492 0.73719448 0.40798113
2.168685 0.6477496 -0.19801784
2.5227365 0.75301927 0.51174974
2.208662 0.65885162 -0.1207914
2.2499158 0.6703015 -0.040978249
2.2893128 0.67812562 0.041676346
2.3308098 0.6895327 0.12738572
2.0520356 0.60706186 -0.41596362
2.3691914 0.70043766 0.21614623
2.0933354 0.61848623 -0.3457202
2.4102573 0.7116639 0.30857319
2.4612341 0.72578031 0.40641677
2.1671109 0.63904786 -0.19766922
2.2147803 0.65226579 -0.12100074
2.2445681 0.66018718 -0.040838633
2.2896299 0.66996807 0.041641444
2.3330834 0.68180007 0.12738572
2.0578063 0.60135549 -0.41672686
2.3695891 0.69201821 0.21597193
2.0915825 0.6104337 -0.34509447
2.4202268 0.70589107 0.30954817
2.1268589 0.61992264 -0.27201241
2.5315731 0.7369287 0.51251298
2.2448246 0.65218288 -0.040803727
2.2804272 0.65864396 0.041432012
2.0674386 0.59634471 -0.41825336
2.3681612 0.68263936 0.21562332
2.4303069 0.69963461 0.31052312
2.4680154 0.70955735 0.40672967
2.5265827 0.72591817 0.51098651
2.2470875 0.64434242 -0.040803727
2.0657308 0.58804977 -0.41749012
2.3705297 0.67436928 0.21562332
2.1273155 0.60397595 -0.27152494
2.472378 0.70147663 0.40704253
2.1639926 0.61397988 -0.19679767
2.5253234 0.71602374 0.51022327
2.2156146 0.627792 -0.12068672
2.2589436 0.6392175 -0.040978249
2.2868948 0.64324898 0.041466918
2.3362496 0.65625018 0.12717639
2.0677712 0.58083487 -0.41749012
2.3882148 0.67039752 0.21701778
2.0940564 0.58742982 -0.34446874
2.4862244 0.69603789 0.40891972
2.1718783 0.60803425 -0.19732061
2.537261 0.70984846 0.51213133
2.2158692 0.61951584 -0.12058206
2.2611613 0.63132781 -0.040978249
2.3006878 0.63847005 0.041676346
2.3346767 0.64702481 0.12696704
2.0584342 0.57046795 -0.41520041
2.3867002 0.66099399 0.21666917
2.0999017 0.58117092 -0.34509447
2.4241071 0.67044288 0.30881694
2.1720669 0.59991926 -0.19714628
2.5378311 0.70046443 0.51174974
2.2237942 0.61337095 -0.12089607
2.2517843 0.62024426 -0.040768825
2.3067601 0.63149065 0.041746158
2.3388476 0.63939744 0.12707172
2.0642004 0.56431401 -0.41596362
2.3813055 0.65055799 0.21597193
2.1019175 0.57383776 -0.34509447
2.430263 0.66302139 0.30930442
2.1683807 0.59076297 -0.19662334
2.2539353 0.6123808 -0.040768825
2.291575 0.61874384 0.041432012
2.3468502 0.63278979 0.12738572
2.0718443 0.55863899 -0.41710848
2.3758667 0.64016873 0.21527468
2.0962782 0.56444228 -0.34384301
2.4325624 0.65453464 0.30930442
2.1355412 0.57421482 -0.27152494
2.4762077 0.66535157 0.40610394
2.5331788 0.6801843 0.50984168
2.2579908 0.6050263 -0.040803727
2.2898564 0.60971129 0.041362204
2.3490446 0.62459439 0.12738572
2.0794737 0.55291736 -0.41825336
2.3896403 0.63494074 0.21632054
2.4233198 0.6429854 0.30784199
2.1394515 0.56726509 -0.27176866
2.4823341 0.65771514 0.40672967
2.5336392 0.67083693 0.50946003
2.2204416 0.58749515 -0.12037271
2.2658887 0.59867471 -0.040908441
2.2997067 0.60374713 0.04150182
2.3453076 0.61528015 0.12707172
2.0775931 0.54465902 -0.41749012
2.3879874 0.62558615 0.21597193
2.1001675 0.54979372 -0.34384301
2.4255497 0.63452184 0.30784199
2.4883242 0.6504783 0.4073554
2.1763761 0.56852663 -0.19679767
2.5416646 0.66347575 0.51060492
2.2224789 0.57974017 -0.12037271
2.2978249 0.59511441 0.041432012
2.3415341 0.60599869 0.1267577
2.0736856 0.53629118 -0.41634527
2.3977644 0.61965841 0.21666917
2.1058042 0.54381454 -0.34446874
2.4276407 0.62647426 0.30784199
2.4866414 0.64123827 0.40672967
2.1878963 0.56379271 -0.19766922
2.2581892 0.58064562 -0.040699009
2.3036604 0.58848155 0.04150182
2.347506 0.59880817 0.12696704
2.0736423 0.52856588 -0.41596362
2.3843608 0.60776722 0.21527468
2.1037679 0.53585279 -0.34384301
2.4374001 0.62037957 0.30881694
2.4831212 0.63109398 0.40579104
2.1763334 0.55271846 -0.19644904
2.5442183 0.6456781 0.51022327
2.2302451 0.56558174 -0.12058206
2.2660179 0.57423264 -0.040803727
2.301924 0.57905698 0.041432012
2.353559 0.59117377 0.12717639
2.0717578 0.52000469 -0.41520041
2.3865728 0.59902233 0.21527468
2.4492848 0.61385536 0.31003565
2.1412926 0.53626615 -0.27103746
2.4911664 0.62342793 0.40672967
2.5332355 0.63301516 0.50755197
2.2284276 0.55643648 -0.12037271
2.2584059 0.56350332 -0.040629201
2.3001485 0.56965512 0.041362204
2.3576486 0.58302355 0.12728105
2.0830891 0.51512766 -0.41710848
2.3887522 0.59027159 0.21527468
2.1509531 0.53031552 -0.27201241
2.5011067 0.61618263 0.40798113
2.5335233 0.62370116 0.50717038
2.2264774 0.54769963 -0.12016336
2.2643402 0.55617547 -0.040699009
2.3060083 0.56257105 0.041432012
2.3460863 0.57148087 0.12654836
2.0867822 0.50831729 -0.41749012
2.3985419 0.58381385 0.21597193
2.1132815 0.51399088 -0.34446874
2.4974835 0.60605145 0.40704253
2.539501 0.61577833 0.50793356
2.2380815 0.54227543 -0.12068672
2.2740421 0.55014944 -0.040838633
2.313791 0.55592012 0.041536726
2.3576787 0.56602842 0.12707172
2.4044397 0.57636833 0.21632054
2.1112211 0.50569022 -0.34384301
2.4421673 0.58451074 0.30832946
2.4956369 0.59684771 0.40641677
2.20137 0.52606463 -0.19801784
2.541635 0.60690939 0.50793356
2.2341325 0.53306961 -0.12037271
2.2641833 0.53982216 -0.040629201
2.3156219 0.54824364 0.041536726
2.3614862 0.55866724 0.12717639
2.3947036 0.56564301 0.21527468
2.1205764 0.50050181 -0.34509447
2.4440923 0.57640833 0.30832946
2.1484826 0.50669247 -0.27103746
2.4956799 0.5881148 0.40610394
2.1934054 0.51647884 -0.19714628
2.5474558 0.59937745 0.50869679
2.2358878 0.52565849 -0.12037271
2.3096375 0.53874522 0.04139711
2.3634219 0.55042118 0.12717639
2.0841722 0.48538628 -0.41596362
2.4004474 0.55860245 0.21562332
2.1222246 0.49346644 -0.34509447
2.4517908 0.56964844 0.30906066
2.1521721 0.49963814 -0.27128118
2.5015662 0.58029175 0.40672967
2.1951947 0.5088197 -0.19714628
2.5436916 0.58959711 0.50755197
2.2454019 0.52004308 -0.1207914
2.2717013 0.52529991 -0.040699009
2.3115041 0.53067917 0.04139711
2.3672757 0.54261357 0.12728105
2.0801964 0.47642875 -0.41481876
2.4024787 0.54980004 0.21562332
2.4421537 0.55843097 0.30759826
2.1597085 0.49344951 -0.27201241
2.2008429 0.50203967 -0.19749491
2.5439215 0.57983309 0.50717038
2.2375557 0.50959277 -0.12026804
2.2774212 0.51825392 -0.040768825
2.3153844 0.52264321 0.041432012
2.3653517 0.53305578 0.12707172
2.4043834 0.54140979 0.21562332
2.1199198 0.47696668 -0.34415585
2.4480574 0.55034763 0.30808574
2.5114369 0.56367391 0.40766826
2.2064703 0.49522632 -0.19784354
2.5535927 0.57266861 0.50869679
2.233474 0.50046831 -0.11995402
2.2812569 0.51034027 -0.040803727
2.3230507 0.5158599 0.041536726
2.3613486 0.52349842 0.1267577
2.4101486 0.53387707 0.21597193
2.1254289 0.47041804 -0.34478158
2.4519022 0.54222703 0.30832946
2.5095313 0.55405277 0.40704253
2.5555761 0.56375074 0.50869679
2.2430093 0.49438912 -0.12037271
2.3287444 0.50860053 0.041606538
2.3631613 0.51525307 0.1267577
2.4081042 0.52461201 0.21562332
2.1251283 0.46257535 -0.34446874
2.4557192 0.5340873 0.30857319
2.5075893 0.54445052 0.40641677
2.2020853 0.47811913 -0.19714628
2.5575283 0.55482721 0.50869679
2.248625 0.48740321 -0.12058206
2.2769463 0.49270996 -0.040664107
2.3168199 0.49752897 0.041362204
2.3668983 0.50741893 0.12686236
2.4157653 0.51745415 0.21614623
2.4614513 0.5263415 0.30906066
2.1606448 0.46162462 -0.27128118
2.5133381 0.5365206 0.40704253
2.1998436 0.46959916 -0.19679767
2.5517693 0.54425764 0.50717038
2.2786524 0.48475835 -0.040664107
2.3244121 0.49067831 0.041466918
2.4253554 0.51066095 0.21684349
2.1244397 0.44691563 -0.34384301
2.451618 0.51529568 0.30759826
2.1622429 0.45408019 -0.27128118
2.519062 0.52855468 0.40766826
2.2073193 0.46314421 -0.19732061
2.5536537 0.53534627 0.50717038
2.2461085 0.47046462 -0.12026804
2.2842453 0.47761932 -0.040733919
2.3261108 0.48256096 0.041466918
2.413466 0.4993653 0.21562332
2.1317899 0.44069633 -0.34478158
2.4534013 0.50673652 0.30759826
2.2128255 0.45624056 -0.19766922
2.5574293 0.52682698 0.50755197
2.2457807 0.46221808 -0.12016336
2.2898159 0.47044939 -0.040803727
2.3256562 0.47485134 0.041432012
2.3738704 0.48383382 0.12696704
2.4189274 0.4925763 0.21597193
2.1312282 0.43360353 -0.34446874
2.4588718 0.49981654 0.30808574
2.5128326 0.50987196 0.40610394
2.208468 0.44771287 -0.19714628
2.5649352 0.51951182 0.50869679
2.3273809 0.46632472 0.041432012
2.3854203 0.4770866 0.1274904
2.4187627 0.48331729 0.21579762
2.1386147 0.42695001 -0.34540737
2.4704213 0.49274185 0.30930442
2.5166218 0.50104481 0.40641677
2.2061861 0.4388375 -0.19679767
2.5610449 0.50895989 0.50755197
2.2548299 0.4476963 -0.12047738
2.3349609 0.45894772 0.041536726
2.3870711 0.46875754 0.1274904
2.4205179 0.47444823 0.21579762
2.132411 0.41758963 -0.34415585
2.4800029 0.48520908 0.31027937
2.522233 0.49301434 0.40704253
2.2077043 0.43113422 -0.19679767
2.5608792 0.49964046 0.50717038
2.3364701 0.45120153 0.041536726
2.3846903 0.46008292 0.12728105
2.4142523 0.46491119 0.21510038
2.4679525 0.47436011 0.30857319
2.1735916 0.41778162 -0.27176866
2.5335538 0.4865095 0.40860689
2.2208622 0.42606369 -0.19784354
2.2597868 0.43271232 -0.12058206
2.334024 0.4427073 0.041466918
2.3823571 0.45101234 0.12707172
2.431442 0.45986646 0.21649487
2.1331925 0.40307096 -0.34384301
2.5332952 0.47729751 0.40829399
2.2145038 0.41683397 -0.19714628
2.5641367 0.48264503 0.50717038
2.2612092 0.42521667 -0.12058206
2.3034236 0.43232262 -0.040908441
2.3394871 0.43528831 0.041536726
2.3839169 0.4426941 0.12707172
2.429193 0.45022485 0.21614623
2.1404824 0.39632905 -0.34478158
2.4789319 0.45899594 0.30954817
2.5252333 0.46665746 0.40672967
2.2218235 0.41018701 -0.19766922
2.573611 0.47466865 0.50869679
2.3009856 0.42355493 -0.040838633
2.3469687 0.42778701 0.041641444
2.3914185 0.43502539 0.12738572
2.4248693 0.44067448 0.21562332
2.1437967 0.3892073 -0.34509447
2.484504 0.45061502 0.31003565
2.5249829 0.45704639 0.40641677
2.2114782 0.40029901 -0.19662334
2.5733204 0.46533212 0.50831515
2.2946503 0.41369981 -0.040699009
2.3484476 0.41959131 0.041641444
2.3948884 0.42702624 0.1274904
2.4263928 0.43220675 0.21562332
2.4821529 0.44124538 0.30954817
2.534343 0.44960934 0.40766826
2.5710626 0.45566207 0.50755197
2.3059263 0.40742761 -0.040873535
2.3439889 0.41035601 0.041536726
2.4002261 0.41977078 0.12769975
2.4357374 0.42510399 0.21632054
2.4758554 0.43121523 0.30857319
2.1767068 0.37872165 -0.27128118
2.53582 0.44120318 0.40766826
2.5784407 0.4476915 0.50869679
2.2669945 0.39320794 -0.12058206
2.3131757 0.4008033 -0.040978249
2.351249 0.40359733 0.041641444
2.391834 0.40970322 0.12717639
2.4332788 0.41592821 0.21597193
2.4733582 0.42233485 0.30808574
2.5431867 0.43334484 0.40860689
2.5760403 0.43848029 0.50793356
2.274193 0.38669193 -0.12089607
2.3506715 0.39505538 0.041606538
2.3872702 0.40077665 0.12686236
2.4425044 0.40917405 0.21666917
2.1489592 0.35961211 -0.34509447
2.4806912 0.41468111 0.30881694
2.5290225 0.42230663 0.40610394
2.2325094 0.37239206 -0.19801784
2.5814283 0.43013144 0.50869679
2.3138778 0.38471961 -0.040943347
2.3539419 0.38758236 0.041641444
2.396538 0.39373794 0.12728105
2.4399858 0.40000036 0.21632054
2.1501398 0.35248435 -0.34509447
2.4996834 0.40934023 0.31101057
2.526582 0.41283828 0.40547815
2.2259297 0.36331463 -0.19732061
2.5789649 0.42093676 0.50793356
2.2767725 0.37120408 -0.12089607
2.3112588 0.37599975 -0.040873535
2.3493581 0.37840861 0.041536726
2.3978977 0.38536942 0.12728105
2.4334302 0.39064303 0.21562332
2.1474562 0.34435171 -0.34446874
2.4991372 0.40029758 0.31076685
2.5436125 0.40651086 0.40798113
2.2232494 0.35491368 -0.19697197
2.3224318 0.36950004 -0.041048057
2.3565903 0.37114042 0.041641444
2.4427187 0.38295633 0.21632054
2.4887521 0.38972819 0.30930442
2.1887496 0.34235871 -0.27201241
2.546968 0.39793375 0.40829399
2.238255 0.34930089 -0.19819216
2.2773967 0.35459507 -0.1207914
2.3177798 0.36046845 -0.040943347
2.3579347 0.36250001 0.041641444
2.400594 0.3682006 0.12728105
2.4519181 0.37563461 0.21701778
2.4862394 0.38000453 0.30881694
2.5503621 0.38889435 0.40860689
2.2394607 0.34148625 -0.19819216
2.589123 0.39434248 0.50907844
2.2805955 0.34694311 -0.12089607
2.3190854 0.35197145 -0.040943347
2.3611634 0.35456449 0.041676346
2.4018645 0.3598192 0.12728105
2.4512439 0.36677924 0.21684349
2.1549079 0.32205305 -0.34509447
2.4934404 0.37220338 0.30954817
2.5380273 0.37795216 0.40641677
2.2386684 0.33337292 -0.19801784
2.5982511 0.38645819 0.51060492
2.2857437 0.33956769 -0.12110542
2.3222778 0.34416676 -0.040978249
2.3643651 0.34660974 0.041711252
2.4129257 0.35329849 0.12780441
2.4387093 0.35620427 0.21562332
2.1599283 0.31509978 -0.3457202
2.5006173 0.3643553 0.31027937
2.2378469 0.32527038 -0.19784354
2.6034701 0.37794968 0.5113681
2.31549 0.33531797 -0.040838633
2.3635221 0.33848321 0.041676346
2.4121671 0.34459051 0.12769975
2.4438825 0.34825206 0.21597193
2.5057428 0.35661972 0.31076685
2.5483639 0.36177939 0.40766826
2.2330506 0.31661713 -0.19732061
2.5930467 0.36765984 0.50907844
2.3225868 0.32807183 -0.040943347
2.3627088 0.32995483 0.041641444
2.4133551 0.33616892 0.12769975
2.4529173 0.34124336 0.21666917
2.1581099 0.29984659 -0.34509447
2.4912424 0.3456887 0.30881694
2.2022562 0.30519679 -0.27298734
2.5476549 0.35261023 0.4073554
2.2459295 0.3108497 -0.19836646
2.5943141 0.35860673 0.50907844
2.289119 0.31601313 -0.12110542
2.3217368 0.31969017 -0.040908441
2.3638463 0.3217048 0.041641444
2.412535 0.32747459 0.12759508
2.46594 0.33428422 0.21771504
2.4944007 0.337257 0.30906066
2.5567009 0.3447704 0.40860689
2.243052 0.30247495 -0.19801784
2.5974953 0.3498112 0.50946003
2.2862494 0.30748761 -0.12089607
2.3327479 0.31291363 -0.041082963
2.3669369 0.31371585 0.041676346
2.4057431 0.31800365 0.12717639
2.4552398 0.32411164 0.21666917
2.1601508 0.28477287 -0.34509447
2.5014675 0.32932451 0.30979189
2.5500543 0.33481565 0.4073554
2.251996 0.29568136 -0.19871511
2.6103806 0.34227291 0.51174974
2.2912693 0.30002543 -0.12110542
2.321929 0.30321467 -0.040873535
2.3759508 0.30647445 0.041815966
2.4108002 0.31011426 0.12738572
2.4563563 0.31553861 0.21666917
2.1650503 0.27773288 -0.3457202
2.5065393 0.32109573 0.31027937
2.5512075 0.32591161 0.4073554
2.2470856 0.28706062 -0.19819216
2.6174016 0.33390477 0.51289463
2.2883403 0.29152021 -0.12089607
2.3170223 0.29435226 -0.040768825
2.3651011 0.29668495 0.041606538
2.4118681 0.30169648 0.12738572
2.4613967 0.30745563 0.21701778
2.162086 0.26968625 -0.34509447
2.2063029 0.27441847 -0.27298734
2.5601709 0.3179799 0.40860689
2.2480736 0.27921662 -0.19819216
2.6146548 0.32428232 0.51213133
2.3279586 0.28748736 -0.040943347
2.3641374 0.28818592 0.041571636
2.4267855 0.29496187 0.12811844
2.4525657 0.29766217 0.21614623
2.5047789 0.30311084 0.30979189
2.2033057 0.26623958 -0.27249986
2.5651875 0.30951384 0.40923262
2.2510126 0.2716057 -0.19836646
2.6255167 0.31632698 0.51403946
2.2982514 0.2764917 -0.12131476
2.3408608 0.28078783 -0.041152775
2.3730721 0.2808713 0.041711252
2.4138658 0.28527352 0.12738572
2.465462 0.29049751 0.2171921
2.1678395 0.25504708 -0.3457202
2.5058215 0.2943674 0.30979189
2.5603142 0.30031461 0.40829399
2.2578835 0.26444125 -0.1988894
2.6285543 0.30739012 0.51442105
2.293251 0.26777205 -0.12100074
2.3437653 0.27325577 -0.041187681
2.3739905 0.27300084 0.041711252
2.4267039 0.27863362 0.12801376
2.4703708 0.28277382 0.21754073
2.1725988 0.24830487 -0.34634593
2.5107284 0.28650558 0.31027937
2.5711091 0.29294121 0.40985835
2.2587481 0.25695282 -0.1988894
2.6315103 0.29889271 0.51480269
2.3406844 0.26503256 -0.041117873
2.3848195 0.26623556 0.041885775
2.4256766 0.2699407 0.12790908
2.1773369 0.24153495 -0.34697169
2.5235028 0.27948976 0.3117418
2.5701525 0.28374839 0.40954545
2.2616117 0.24928553 -0.19906372
2.6168754 0.2884444 0.51174974
2.3296688 0.25555262 -0.040908441
2.3718178 0.25640541 0.041641444
2.4603989 0.26424396 0.21649487
2.170351 0.23271002 -0.3457202
2.5789843 0.27561414 0.41079697
2.2525625 0.24033205 -0.19819216
2.6140108 0.27843457 0.51098651
2.3444662 0.24889614 -0.041152775
2.429533 0.25278279 0.12801376
2.5135908 0.26019844 0.31027937
2.2194245 0.2293548 -0.27396232
2.5819418 0.26636305 0.41110981
2.2593331 0.23308152 -0.19871511
2.6188724 0.26971108 0.51174974
2.3046725 0.23694482 -0.12141944
2.3433735 0.24009827 -0.041117873
2.3835399 0.24042998 0.041815966
2.4244385 0.24370182 0.12769975
2.4661484 0.24745852 0.21684349
2.5184343 0.25181836 0.31076685
2.2660806 0.22578555 -0.19923802
2.6217515 0.26076147 0.51213133
2.303498 0.22870173 -0.12131476
2.3521571 0.23270376 -0.041257489
2.3843646 0.23210891 0.041815966
2.4272215 0.23585325 0.12780441
2.4769127 0.23980908 0.21771504
2.1766014 0.2103502 -0.34634593
2.5232499 0.2434064 0.31125432
2.5777965 0.24821419 0.41017124
2.2549555 0.21673088 -0.19819216
2.3122351 0.22142059 -0.12173345
2.3449535 0.22414184 -0.041117873
2.3851213 0.22420014 0.041815966
2.4359841 0.22812349 0.12822311
2.4697993 0.23042177 0.21701778
2.1812208 0.2034986 -0.34697169
2.5279963 0.23540506 0.3117418
2.5766802 0.23903254 0.40985835
2.2537146 0.208674 -0.19801784
2.3417389 0.21558778 -0.041048057
2.3838975 0.21569343 0.04178106
2.4407058 0.22040397 0.12843245
2.4765034 0.22276519 0.21754073
2.532757 0.2269329 0.31222928
2.5872962 0.23136567 0.4114227
2.3524003 0.20870517 -0.041222587
2.3806152 0.20744024 0.041711252
2.4891758 0.21514796 0.21858659
2.5295401 0.21819325 0.3117418
2.2210448 0.19119255 -0.27371857
2.5861199 0.22216313 0.41110981
2.2630231 0.19400933 -0.19871511
2.3123677 0.19783422 -0.12162878
2.3570995 0.20083141 -0.041292395
2.3932817 0.20012829 0.041920681
2.4501464 0.20402218 0.12885113
2.48789 0.20672789 0.21841228
2.5263298 0.20903412 0.31125432
2.2696106 0.18699612 -0.19923802
2.3110538 0.18959744 -0.1215241
2.3939655 0.19177346 0.041920681
2.4388978 0.19451496 0.12822311
2.4965408 0.19867502 0.21910954
2.1838191 0.17340507 -0.34697169
2.5428753 0.20146792 0.31320426
2.2722359 0.17922863 -0.19941233
2.3176746 0.18199874 -0.12183812
2.3564506 0.18421499 -0.041257489
2.4006021 0.18387331 0.042025398
2.4852993 0.18905187 0.21806367
2.1922901 0.16637841 -0.34822315
2.535645 0.19199263 0.31222928
2.2649307 0.17030223 -0.19871511
2.353091 0.17569217 -0.041187681
2.3892629 0.17461848 0.041815966
2.4899497 0.18022975 0.21841228
2.2655113 0.16239451 -0.19871511
2.3616683 0.16804434 -0.041327298
2.3898869 0.16585961 0.041815966
2.4985147 0.17208403 0.21910954
2.231992 0.15255332 -0.27469352
2.2700398 0.15475582 -0.19906372
2.3682263 0.16020384 -0.041432012
2.3924189 0.15806583 0.041850869
2.449348 0.16096847 0.1286418
2.5030763 0.16362199 0.21945816
2.1899698 0.14315474 -0.34759742
2.2745426 0.14708859 -0.19941233
2.3687708 0.15193672 -0.041432012
2.4109182 0.15083808 0.042165015
2.4439144 0.15204495 0.12832777
2.2789953 0.13978845 -0.19976096
2.3264787 0.14188701 -0.12215213
2.3613029 0.14318249 -0.041292395
2.4114301 0.14242084 0.042165015
2.450412 0.14386487 0.1286418
2.271513 0.13137275 -0.19906372
2.3597915 0.13482554 -0.041257489
2.4059227 0.13367024 0.042060301
2.4628644 0.13597038 0.12926982
2.1952934 0.12043074 -0.34822315
2.2759581 0.12326126 -0.19941233
2.3742256 0.12733655 -0.04150182
2.4063747 0.12527055 0.042060301
2.4653187 0.12747739 0.1293745
2.1976931 0.11248525 -0.34853604
2.2422245 0.11437109 -0.27566847
2.2763746 0.11531641 -0.19941233
2.3746555 0.11904868 -0.04150182
2.4068177 0.11645043 0.042060301
2.2807436 0.10755788 -0.19976096
2.3382275 0.10945081 -0.12267549
2.4151814 0.10882904 0.042199921
2.2082748 0.097960047 -0.35010037
2.2870593 0.1002552 -0.20028389
2.3754108 0.10288212 -0.04150182
2.2046404 0.090475053 -0.34947464
2.371743 0.094845086 -0.041432012
2.2415752 0.084153548 -0.27542472
2.3780396 0.087198749 -0.041536726
2.2919662 0.076433271 -0.20063251
2.3843527 0.078264475 -0.041641444
2.2902277 0.068373382 -0.20045821
2.3806136 0.069824293 -0.041571636
2.2904418 0.060777709 -0.20045821
2.2504883 0.052250449 -0.2763997
2.2886481 0.052736785 -0.20028389
2.2506571 0.04439386 -0.2763997
2.2967939 0.044501916 -0.20098113
2.2587376 0.03666668 -0.27737463
2.2949433 0.03645318 -0.20080683
2.3050177 0.028566038 -0.20167838
2.309088 0.020554708 -0.20202701
2.2629681 0.01303488 -0.27786213
2.2590284 0.0055202083 -0.27737463
2.2630043 -0.0023698132 -0.27786213
